ply
format ascii 1.0
element vertex 1136
property float x
property float y
property float z
property uchar red
property uchar green
property uchar blue
end_header
36.923077 -25.846153 -575.015381 245 245 245
38.153847 -25.846153 -575.015381 247 247 247
25.600000 -16.799999 -373.760010 250 250 250
35.200001 -22.400000 -498.346680 249 249 249
32.000000 -19.764706 -439.717651 249 249 249
26.666666 -16.000000 -355.961914 249 249 249
0.356215 -0.207792 -4.622882 241 241 241
0.366110 -0.207792 -4.622882 226 226 226
0.375540 -0.207536 -4.617171 224 224 224
61.333332 -28.000000 -622.933350 248 248 248
39.578949 -17.684210 -393.431580 246 246 246
33.391304 -14.608696 -325.008698 246 246 246
35.636364 -15.272727 -339.781830 244 244 244
51.000000 -21.000000 -467.200012 191 191 191
92.444443 -37.333332 -830.577820 190 190 190
1.676471 -0.617647 -13.741177 220 220 220
0.717815 -0.218466 -4.860338 243 243 243
0.743198 -0.222960 -4.960319 242 242 242
0.734947 -0.208566 -4.640100 245 245 245
0.743494 -0.208178 -4.631474 247 247 247
2.556017 -0.697095 -15.508714 244 244 244
1.096414 -0.267729 -5.956335 250 250 250
1.568627 -0.366013 -8.142920 249 249 249
25.762712 -5.694915 -126.698311 246 246 246
1.002532 -0.212658 -4.731139 210 210 210
1.044814 -0.215109 -4.785659 217 217 217
9.818182 -1.909091 -42.472729 235 235 235
9.635359 -1.856354 -41.299450 235 235 235
1.192747 -0.225655 -5.020282 188 188 188
0.889764 -0.165354 -3.678740 183 183 183
3.407942 -0.606498 -13.493141 192 192 192
1.036473 -0.182907 -4.069243 200 200 200
1.038961 -0.181818 -4.045022 200 200 200
1.050592 -0.180840 -4.023251 201 201 201
1.055228 -0.180161 -4.008150 207 207 207
7.272727 -1.221818 -27.182547 211 211 211
1.210811 -0.201802 -4.489610 211 211 211
1.216038 -0.201077 -4.473489 210 210 210
1.440225 -0.236287 -5.256822 219 219 219
1.899281 -0.302158 -6.722302 238 238 238
1.910233 -0.301616 -6.710234 239 239 239
1.331689 -0.207152 -4.608632 241 241 241
1.341554 -0.207152 -4.608632 228 228 228
2.365957 -0.357447 -7.952341 200 200 200
3.164346 -0.467967 -10.411142 204 204 204
4.650406 -0.682927 -15.193497 192 192 192
4.731006 -0.689938 -15.349487 111 111 111
4.773663 -0.691358 -15.381070 77 77 77
1.544320 -0.220617 -4.908207 92 92 92
1.554826 -0.220617 -4.908207 111 111 111
8.650177 -1.187279 -26.414135 198 198 198
8.706714 -1.187279 -26.414135 218 218 218
1.267717 -0.165354 -3.678740 226 226 226
16.509554 -2.140127 -47.612740 218 218 218
16.299999 -2.100000 -46.720001 182 182 182
16.929031 -2.167742 -48.227097 84 84 84
17.254902 -2.196079 -48.857517 80 80 80
2.348364 -0.297082 -6.609373 101 101 101
1.490240 -0.187395 -4.169102 117 117 117
86.500000 -10.500000 -233.600006 65 65 65
3.727749 -0.439791 -9.784293 63 63 63
1.619151 -0.182807 -4.067029 54 54 54
1.771594 -0.194783 -4.333449 73 73 73
1.785714 -0.187500 -4.171429 65 65 65
1.813333 -0.186667 -4.152889 92 92 92
5.407752 -0.520930 -11.589458 54 54 54
5.440994 -0.521739 -11.607453 53 53 53
14.201550 -1.302326 -28.973644 59 59 59
31.862068 -2.896552 -64.441383 65 65 65
4.095860 -0.366013 -8.142920 53 53 53
2.467920 -0.217758 -4.844589 44 44 44
2.481506 -0.218040 -4.850876 40 40 40
204.631577 -17.684210 -393.431580 30 30 30
3.594203 -0.304348 -6.771015 20 20 20
8.745341 -0.695652 -15.476605 17 17 17
3.399361 -0.268371 -5.970607 24 24 24
25.488373 -1.953488 -43.460464 23 23 23
2.734545 -0.203636 -4.530425 12 12 12
2.742580 -0.203513 -4.527680 15 15 15
30.810810 -2.270270 -50.508110 20 20 20
-4.930057 -0.665406 -14.130814 152 152 152
-4.817844 -0.654275 -13.894424 186 186 186
-4.744015 -0.648250 -13.766483 193 193 193
-8.585366 -1.226481 -26.045994 214 214 214
-1.809524 -0.261905 -5.561905 206 206 206
-15.790850 -2.300654 -48.857517 198 198 198
-14.906833 -2.186335 -46.429813 188 188 188
-13.393258 -1.977528 -41.995506 182 182 182
-1.134299 -0.175736 -3.732002 180 180 180
-1.329320 -0.211921 -4.500422 199 199 199
-1.318100 -0.211666 -4.495009 197 197 197
-2.129096 -0.349553 -7.423237 189 189 189
-8.866667 -1.466667 -31.146667 210 210 210
-8.585366 -1.430894 -30.386993 215 215 215
-3.829314 -0.653061 -13.868646 208 208 208
-3.813780 -0.655493 -13.920299 204 204 204
-3.812383 -0.660413 -14.024766 202 202 202
-3.638989 -0.635379 -13.493141 198 198 198
-3.664804 -0.655493 -13.920299 195 195 195
-3.614815 -0.651852 -13.842963 195 195 195
-3.625468 -0.659176 -13.998502 192 192 192
-3.562152 -0.653061 -13.868646 193 193 193
-1.664903 -0.310406 -6.591887 208 208 208
-1.784736 -0.344423 -7.314286 198 198 198
-1.760467 -0.342746 -7.278676 201 201 201
-3.929204 -0.778761 -16.538054 202 202 202
-2.368775 -0.473755 -10.060835 207 207 207
-4.107579 -0.860636 -18.276773 245 245 245
-4.038835 -0.854369 -18.143690 249 249 249
-4.019512 -0.858537 -18.232195 251 251 251
-3.932530 -0.848193 -18.012531 251 251 251
-3.903382 -0.850242 -18.056040 250 250 250
-54.153847 -13.538462 -287.507690 244 244 244
-1.112369 -0.284559 -6.043007 243 243 243
-1.097659 -0.284100 -6.033253 239 239 239
-0.913664 -0.239293 -5.081713 231 231 231
-0.900950 -0.238806 -5.071371 212 212 212
-0.888287 -0.238321 -5.061070 203 203 203
-0.659708 -0.183716 -3.901461 226 226 226
-0.651357 -0.183716 -3.901461 221 221 221
-2.777778 -0.814815 -17.303703 249 249 249
-0.601367 -0.200456 -4.256948 238 238 238
-0.590574 -0.199886 -4.244861 203 203 203
-0.503937 -0.173228 -3.678740 194 194 194
-1.175355 -0.417062 -8.856873 227 227 227
-1.142857 -0.412178 -8.753161 235 235 235
-0.495922 -0.191408 -4.064818 249 249 249
-0.485900 -0.190889 -4.053796 244 244 244
-6.101695 -2.983051 -63.349155 241 241 241
-0.354057 -0.185458 -3.938462 233 233 233
-0.349390 -0.226076 -4.801028 211 211 211
-0.337596 -0.225064 -4.779540 228 228 228
-27.294117 -20.705883 -439.717651 247 247 247
-24.888889 -19.555555 -415.288910 251 251 251
-19.636364 -16.000000 -339.781830 254 254 254
-19.809525 -16.761906 -355.961914 254 254 254
-20.000000 -17.600000 -373.760010 255 255 255
-18.285715 -16.761906 -355.961914 255 255 255
-20.444445 -19.555555 -415.288910 255 255 255
-27.076923 -27.076923 -575.015381 254 254 254
-33.599998 -35.200001 -747.520020 253 253 253
0.000000 -0.541538 -11.500308 187 187 187
0.071749 -1.578475 -33.521076 191 191 191
0.045369 -0.332703 -7.065407 186 186 186
0.134454 -0.591597 -12.563362 233 233 233
0.160000 -0.586667 -12.458667 240 240 240
0.186047 -0.584718 -12.417276 243 243 243
0.112676 -0.247887 -5.264225 246 246 246
0.122004 -0.191721 -4.071460 251 251 251
0.266281 -0.254703 -5.408973 218 218 218
0.278059 -0.254888 -5.412889 233 233 233
28.571428 -25.142857 -533.942871 244 244 244
26.000000 -22.000000 -467.200012 248 248 248
21.600000 -17.600000 -373.760010 247 247 247
28.000000 -22.000000 -467.200012 243 243 243
35.692307 -27.076923 -575.015381 244 244 244
30.000000 -22.000000 -467.200012 245 245 245
27.555555 -19.555555 -415.288910 247 247 247
26.947369 -18.526316 -393.431580 247 247 247
40.615383 -27.076923 -575.015381 247 247 247
34.000000 -22.000000 -467.200012 249 249 249
29.473684 -18.526316 -393.431580 244 244 244
0.356436 -0.217822 -4.625743 239 239 239
0.366563 -0.217957 -4.628607 217 217 217
0.376238 -0.217822 -4.625743 212 212 212
0.386378 -0.217957 -4.628607 232 232 232
67.199997 -35.200001 -747.520020 245 245 245
76.444443 -39.111111 -830.577820 250 250 250
70.400002 -35.200001 -747.520020 249 249 249
55.384617 -27.076923 -575.015381 251 251 251
56.615383 -27.076923 -575.015381 252 252 252
53.714287 -25.142857 -533.942871 250 250 250
45.176472 -20.705883 -439.717651 250 250 250
60.307693 -27.076923 -575.015381 246 246 246
74.181816 -32.000000 -679.563660 227 227 227
83.199997 -35.200001 -747.520020 206 206 206
0.867536 -0.241592 -5.130542 224 224 224
0.877313 -0.241261 -5.123509 225 225 225
0.742796 -0.187834 -3.988901 246 246 246
0.751735 -0.187934 -3.991030 247 247 247
1.570338 -0.383860 -8.151799 251 251 251
24.516129 -5.677419 -120.567741 247 247 247
1.532083 -0.347483 -7.379270 247 247 247
0.993726 -0.220828 -4.689586 214 214 214
1.585868 -0.345437 -7.335820 210 210 210
2.344239 -0.500711 -10.633286 219 219 219
4.813754 -1.008596 -21.418911 225 225 225
9.818182 -2.000000 -42.472729 232 232 232
9.582417 -1.934066 -41.072529 234 234 234
0.881890 -0.173228 -3.678740 160 160 160
0.889764 -0.173228 -3.678740 173 173 173
1.038961 -0.190476 -4.045022 186 186 186
1.047619 -0.190476 -4.045022 195 195 195
1.052859 -0.189860 -4.031931 199 199 199
1.054662 -0.188639 -4.006002 197 197 197
1.057006 -0.187533 -3.982525 200 200 200
1.060445 -0.186638 -3.963521 211 211 211
1.215190 -0.212176 -4.505847 212 212 212
1.218225 -0.211031 -4.481535 217 217 217
1.439213 -0.247365 -5.253127 225 225 225
1.873874 -0.317117 -6.734415 235 235 235
1.888288 -0.317117 -6.734415 240 240 240
1.899281 -0.316547 -6.722302 239 239 239
1.913669 -0.316547 -6.722302 241 241 241
1.921147 -0.315412 -6.698208 239 239 239
6.038568 -0.969697 -20.592838 189 189 189
1.110236 -0.173228 -3.678740 194 194 194
3.173184 -0.491620 -10.440224 204 204 204
3.173370 -0.488211 -10.367823 199 199 199
4.823285 -0.731809 -15.540956 92 92 92
1.532808 -0.230971 -4.904987 101 101 101
1.544320 -0.231123 -4.908207 101 101 101
1.555848 -0.231275 -4.911432 111 111 111
6.391421 -0.943700 -20.040751 127 127 127
6.332454 -0.928760 -19.723484 127 127 127
8.748201 -1.266187 -26.889210 202 202 202
8.525951 -1.217993 -25.865746 223 223 223
1.671802 -0.235767 -5.006832 234 234 234
17.052631 -2.315789 -49.178947 202 202 202
16.825806 -2.270968 -48.227097 111 111 111
17.150328 -2.300654 -48.857517 63 63 63
17.254902 -2.300654 -48.857517 61 61 61
2.350442 -0.311504 -6.615222 68 68 68
1.383520 -0.179044 -3.802238 88 88 88
114.666664 -14.666667 -311.466675 61 61 61
95.448273 -12.137931 -257.765533 59 59 59
1.541864 -0.185361 -3.936388 56 56 56
1.615635 -0.191097 -4.058197 59 59 59
7.004608 -0.811060 -17.223963 106 106 106
1.982028 -0.225931 -4.797946 88 88 88
1.923926 -0.215951 -4.586012 65 65 65
1.934929 -0.216083 -4.588828 68 68 68
1.943558 -0.215951 -4.586012 70 70 70
1.908086 -0.204770 -4.348575 77 77 77
3.952267 -0.420048 -8.920286 65 65 65
1.840708 -0.194690 -4.134513 63 63 63
5.399381 -0.544892 -11.571517 68 68 68
2.135899 -0.211666 -4.495009 50 50 50
5.239354 -0.516887 -10.976799 51 51 51
5.537519 -0.539051 -11.447474 54 54 54
14.146718 -1.359073 -28.861776 46 46 46
3.759131 -0.347483 -7.379270 54 54 54
3.798220 -0.348170 -7.393867 37 37 37
204.631577 -18.526316 -393.431580 38 38 38
4.140206 -0.362887 -7.706392 25 25 25
23.272728 -2.000000 -42.472729 24 24 24
23.632183 -2.022989 -42.960922 30 30 30
24.140350 -2.058480 -43.714622 22 22 22
143.466660 -11.733334 -249.173340 25 25 25
144.000000 -11.733334 -249.173340 26 26 26
25.341040 -2.034682 -43.209251 25 25 25
2.723198 -0.213204 -4.527680 19 19 19
2.731235 -0.213075 -4.524940 19 19 19
-4.911488 -0.693032 -14.077590 61 61 61
-4.800000 -0.681481 -13.842963 80 80 80
-4.744015 -0.677716 -13.766483 178 178 178
-4.714549 -0.677716 -13.766483 186 186 186
-4.693727 -0.678967 -13.791883 185 185 185
-17.000000 -2.555556 -51.911114 203 203 203
-17.006992 -2.573426 -52.274128 201 201 201
-17.257143 -2.628572 -53.394287 195 195 195
-15.286624 -2.343949 -47.612740 189 189 189
-1.870296 -0.294636 -5.984948 188 188 188
-1.134865 -0.183816 -3.733866 111 111 111
-13.925926 -2.271605 -46.143211 184 184 184
-13.658537 -2.243902 -45.580490 193 193 193
-17.792000 -2.944000 -59.801601 197 197 197
-2.775510 -0.469388 -9.534694 192 192 192
-2.741117 -0.467005 -9.486295 187 187 187
-8.903766 -1.539749 -31.276989 210 210 210
-8.873950 -1.546219 -31.408403 221 221 221
-8.919149 -1.565957 -31.809362 217 217 217
-3.619390 -0.660682 -13.420467 205 205 205
-3.568556 -0.672760 -13.665813 194 194 194
-3.611940 -0.686567 -13.946269 190 190 190
-3.575419 -0.685289 -13.920299 191 191 191
-3.487180 -0.673993 -13.690843 191 191 191
-2.316644 -0.497970 -10.115292 194 194 194
-2.279570 -0.494624 -10.047312 219 219 219
-4.127764 -0.904177 -18.366585 248 248 248
-2.413273 -0.555053 -11.274812 251 251 251
-4.359550 -1.033708 -20.997753 246 246 246
-129.454544 -33.454544 -679.563660 247 247 247
-54.153847 -14.153846 -287.507690 247 247 247
-49.714287 -13.142858 -266.971436 246 246 246
-1.099434 -0.297494 -6.043007 246 246 246
-0.914286 -0.250340 -5.085170 235 235 235
-0.900950 -0.249661 -5.071371 208 208 208
-0.659708 -0.192067 -3.901461 235 235 235
-0.651357 -0.192067 -3.901461 230 230 230
-0.726415 -0.216981 -4.407547 236 236 236
-3.218130 -1.042493 -21.176205 251 251 251
-2.353945 -0.784648 -15.938593 254 254 254
-0.947834 -0.325376 -6.609373 244 244 244
-0.590238 -0.208854 -4.242452 192 192 192
-1.173965 -0.435503 -8.846391 226 226 226
-0.844327 -0.323659 -6.574494 237 237 237
-0.676652 -0.324229 -6.586080 230 230 230
-0.662555 -0.324229 -6.586080 234 234 234
-6.344828 -3.172414 -64.441383 235 235 235
-6.206897 -3.172414 -64.441383 243 243 243
-5.966102 -3.118644 -63.349155 241 241 241
-0.354617 -0.194195 -3.944697 237 237 237
-0.283110 -0.197319 -4.008150 217 217 217
-22.095238 -17.523809 -355.961914 251 251 251
-21.333334 -17.523809 -355.961914 254 254 254
-18.000000 -15.333333 -311.466675 255 255 255
-19.809525 -17.523809 -355.961914 254 254 254
-18.181818 -16.727272 -339.781830 255 255 255
-19.200001 -18.400000 -373.760010 255 255 255
-28.307692 -28.307692 -575.015381 255 255 255
-32.000000 -33.454544 -679.563660 255 255 255
-33.599998 -36.799999 -747.520020 254 254 254
-0.075472 -1.735849 -35.260380 195 195 195
0.071429 -1.642857 -33.371429 191 191 191
0.140351 -1.614035 -32.785965 183 183 183
0.037101 -0.213333 -4.333449 202 202 202
0.066218 -0.190378 -3.867150 245 245 245
0.112676 -0.259155 -5.264225 246 246 246
0.102291 -0.196058 -3.982525 229 229 229
0.189881 -0.229856 -4.669082 213 213 213
0.640000 -0.669091 -13.591273 210 210 210
0.266088 -0.266088 -5.405062 214 214 214
22.222221 -20.444445 -415.288910 244 244 244
21.894737 -19.368422 -393.431580 247 247 247
20.571428 -17.523809 -355.961914 247 247 247
28.000000 -23.000000 -467.200012 244 244 244
33.142857 -26.285715 -533.942871 244 244 244
34.285713 -26.285715 -533.942871 247 247 247
33.066666 -24.533333 -498.346680 245 245 245
34.133335 -24.533333 -498.346680 243 243 243
48.000000 -33.454544 -679.563660 244 244 244
36.266666 -24.533333 -498.346680 247 247 247
0.356436 -0.227723 -4.625743 230 230 230
0.366791 -0.228005 -4.631474 201 201 201
0.376471 -0.227864 -4.628607 214 214 214
0.386857 -0.228146 -4.634346 235 235 235
54.666668 -30.666666 -622.933350 247 247 247
56.000000 -30.666666 -622.933350 247 247 247
68.800003 -36.799999 -747.520020 249 249 249
64.000000 -33.454544 -679.563660 250 250 250
55.384617 -28.307692 -575.015381 251 251 251
56.615383 -28.307692 -575.015381 251 251 251
50.133335 -24.533333 -498.346680 251 251 251
45.176472 -21.647058 -439.717651 250 250 250
41.263157 -19.368422 -393.431580 248 248 248
88.888885 -40.888889 -830.577820 248 248 248
58.285713 -26.285715 -533.942871 247 247 247
59.428570 -26.285715 -533.942871 240 240 240
70.666664 -30.666666 -622.933350 214 214 214
72.000000 -30.666666 -622.933350 200 200 200
0.655643 -0.264558 -5.373976 235 235 235
0.719958 -0.194812 -3.957226 237 237 237
0.742004 -0.196162 -3.984648 249 249 249
0.750533 -0.196162 -3.984648 249 249 249
7.014778 -1.812808 -36.823647 249 249 249
1.646018 -0.407080 -8.269027 240 240 240
1.189358 -0.287950 -5.849139 249 249 249
1.197194 -0.286828 -5.826344 249 249 249
1.208723 -0.286604 -5.821807 247 247 247
1.225000 -0.287500 -5.840000 237 237 237
0.992481 -0.230576 -4.683710 216 216 216
1.571984 -0.357977 -7.271595 214 214 214
1.629775 -0.360431 -7.321450 223 223 223
4.813754 -1.054441 -21.418911 222 222 222
9.762712 -2.079096 -42.232769 230 230 230
9.530055 -2.010929 -40.848087 232 232 232
0.885375 -0.181818 -3.693281 189 189 189
0.889764 -0.181102 -3.678740 164 164 164
0.995090 -0.200764 -4.078124 181 181 181
1.804739 -0.348815 -7.085498 101 101 101
1.045356 -0.198704 -4.036285 180 180 180
1.052859 -0.198490 -4.031931 189 189 189
1.053533 -0.197002 -4.001713 197 197 197
1.053638 -0.195433 -3.969836 201 201 201
1.052632 -0.193684 -3.934316 200 200 200
1.050000 -0.191667 -3.893333 209 209 209
1.050672 -0.190279 -3.865150 218 218 218
1.052524 -0.187659 -3.811933 227 227 227
1.873874 -0.331532 -6.734415 231 231 231
1.888288 -0.331532 -6.734415 235 235 235
1.899281 -0.330935 -6.722302 234 234 234
1.915392 -0.331233 -6.728353 231 231 231
1.932021 -0.329159 -6.686225 193 193 193
1.595376 -0.265896 -5.401156 189 189 189
1.608098 -0.266088 -5.405062 181 181 181
3.177622 -0.514685 -10.454825 201 201 201
4.884211 -0.774737 -15.737264 173 173 173
1.547368 -0.242105 -4.917895 132 132 132
1.555848 -0.241787 -4.911432 111 111 111
6.425876 -0.991914 -20.148788 132 132 132
6.417112 -0.983957 -19.987165 178 178 178
6.494624 -0.989247 -20.094624 198 198 198
8.383562 -1.260274 -25.600000 225 225 225
8.352542 -1.247458 -25.339663 232 232 232
1.400673 -0.206510 -4.194838 231 231 231
18.269503 -2.609929 -53.015606 224 224 224
17.052631 -2.421053 -49.178947 186 186 186
17.271523 -2.437086 -49.504639 73 73 73
2.352524 -0.325952 -6.621081 61 61 61
125.090912 -16.727272 -339.781830 77 77 77
1.582912 -0.206858 -4.201911 54 54 54
1.590118 -0.206625 -4.197193 56 56 56
3.743791 -0.481046 -9.771503 61 61 61
1.956466 -0.235595 -4.785659 56 56 56
1.984576 -0.236504 -4.804113 63 63 63
3.242362 -0.374745 -7.612220 101 101 101
32.979591 -3.755102 -76.277550 84 84 84
107.354836 -11.870968 -241.135483 61 61 61
2.057276 -0.215079 -4.368907 59 59 59
5.254786 -0.541973 -11.009131 46 46 46
5.554532 -0.565284 -11.482642 59 59 59
3.415896 -0.340111 -6.908688 51 51 51
12.768212 -1.218543 -24.752319 44 44 44
12.906667 -1.226667 -24.917334 53 53 53
3.441457 -0.319167 -6.483261 34 34 34
10.666667 -0.965879 -19.619947 27 27 27
31.878788 -2.787879 -56.630306 19 19 19
32.492310 -2.830769 -57.501541 21 21 21
138.838715 -11.870968 -241.135483 24 24 24
105.365852 -8.975610 -182.321960 28 28 28
11.120000 -0.920000 -18.688000 14 14 14
128.000000 -10.514286 -213.577148 13 13 13
-4.902256 -0.721804 -14.051128 47 47 47
-4.817844 -0.713755 -13.894424 49 49 49
-4.731978 -0.709797 -13.817375 152 152 152
-4.685083 -0.707182 -13.766483 156 156 156
-1.228346 -0.188976 -3.678740 205 205 205
-3.980738 -0.616372 -11.998716 210 210 210
-7.175757 -1.163636 -22.652122 197 197 197
-6.877193 -1.122807 -21.857311 194 194 194
-1.145145 -0.192192 -3.741341 57 57 57
-1.134865 -0.191808 -3.733866 127 127 127
-14.100000 -2.400000 -46.720001 190 190 190
-13.658537 -2.341463 -45.580490 189 189 189
-17.650793 -3.047619 -59.326984 191 191 191
-1.560424 -0.271378 -5.282827 194 194 194
-2.771975 -0.489172 -9.522548 191 191 191
-2.741117 -0.487310 -9.486295 189 189 189
-1.063492 -0.190476 -3.707937 186 186 186
-8.763486 -1.593361 -31.017427 220 220 220
-8.881356 -1.627119 -31.674578 219 219 219
-10.196078 -1.882353 -36.643139 219 219 219
-10.217822 -1.900990 -37.005943 220 220 220
-3.638989 -0.693141 -13.493141 207 207 207
-3.496504 -0.671329 -13.068532 205 205 205
-1.208489 -0.239700 -4.666167 189 189 189
-4.086580 -0.831169 -16.180086 199 199 199
-1.273356 -0.265744 -5.173149 227 227 227
-1.917285 -0.407211 -7.927042 223 223 223
-4.100687 -0.878719 -17.105721 218 218 218
-0.975610 -0.212860 -4.143681 205 205 205
-2.411594 -0.556522 -10.833624 246 246 246
-2.361032 -0.550143 -10.709455 249 249 249
-2.409639 -0.578313 -11.257832 252 252 252
-4.434286 -1.097143 -21.357716 244 244 244
-4.363636 -1.090909 -21.236364 244 244 244
-0.900339 -0.260339 -5.067932 224 224 224
-0.643539 -0.193062 -3.758271 240 240 240
-0.726415 -0.226415 -4.407547 234 234 234
-3.236467 -1.094017 -21.296867 244 244 244
-2.353945 -0.818763 -15.938593 251 251 251
-0.939527 -0.336547 -6.551446 225 225 225
-1.217799 -0.449649 -8.753161 194 194 194
-1.199063 -0.449649 -8.753161 191 191 191
-1.569620 -0.607595 -11.827848 233 233 233
-1.132251 -0.445476 -8.671926 241 241 241
-0.689534 -0.337731 -6.574494 232 232 232
-0.676652 -0.338326 -6.586080 232 232 232
-0.604052 -0.353591 -6.883242 229 229 229
-0.583409 -0.350046 -6.814221 206 206 206
-0.351876 -0.248383 -4.835188 214 214 214
-48.000000 -34.909092 -679.563660 210 210 210
-30.117647 -22.588236 -439.717651 211 211 211
-32.000000 -25.600000 -498.346680 247 247 247
-21.090910 -17.454546 -339.781830 252 252 252
-20.363636 -17.454546 -339.781830 254 254 254
-19.636364 -17.454546 -339.781830 254 254 254
-21.894737 -20.210526 -393.431580 255 255 255
-19.047619 -18.285715 -355.961914 255 255 255
-19.200001 -19.200001 -373.760010 255 255 255
-40.888889 -42.666668 -830.577820 255 255 255
-0.130384 -0.223516 -4.351106 214 214 214
-0.134879 -0.404636 -7.876923 195 195 195
-0.118896 -0.407643 -7.935457 197 197 197
0.000000 -0.197429 -3.843291 195 195 195
0.071111 -1.706667 -33.223110 189 189 189
0.139738 -1.676856 -32.642796 179 179 179
0.075686 -0.363292 -7.072091 219 219 219
0.057702 -0.197836 -3.851211 231 231 231
0.066082 -0.198245 -3.859164 235 235 235
0.074534 -0.198758 -3.869151 239 239 239
0.112597 -0.270232 -5.260521 238 238 238
0.123769 -0.270042 -5.256822 230 230 230
0.189290 -0.239103 -4.654546 232 232 232
2.186335 -2.385093 -46.429813 203 203 203
19.047619 -18.285715 -355.961914 241 241 241
19.809525 -18.285715 -355.961914 242 242 242
20.571428 -18.285715 -355.961914 242 242 242
26.352942 -22.588236 -439.717651 247 247 247
33.142857 -27.428572 -533.942871 244 244 244
30.000000 -24.000000 -467.200012 246 246 246
31.000000 -24.000000 -467.200012 244 244 244
0.638541 -0.437856 -8.523603 236 236 236
0.367018 -0.238066 -4.634346 198 198 198
0.376937 -0.238066 -4.634346 225 225 225
59.636364 -34.909092 -679.563660 246 246 246
67.199997 -38.400002 -747.520020 248 248 248
70.400002 -38.400002 -747.520020 253 253 253
65.454544 -34.909092 -679.563660 251 251 251
66.909088 -34.909092 -679.563660 250 250 250
62.666668 -32.000000 -622.933350 251 251 251
48.000000 -24.000000 -467.200012 252 252 252
43.555557 -21.333334 -415.288910 252 252 252
44.444443 -21.333334 -415.288910 253 253 253
42.947369 -20.210526 -393.431580 252 252 252
43.789474 -20.210526 -393.431580 250 250 250
60.571430 -27.428572 -533.942871 236 236 236
61.714287 -27.428572 -533.942871 210 210 210
0.653763 -0.275269 -5.358566 238 238 238
0.664756 -0.275072 -5.354728 240 240 240
1.062295 -0.314754 -6.127213 230 230 230
1.083402 -0.317093 -6.172750 226 226 226
0.716544 -0.202318 -3.938462 237 237 237
1.362376 -0.380198 -7.401188 241 241 241
0.743987 -0.205238 -3.995297 249 249 249
0.752539 -0.205238 -3.995297 249 249 249
7.049505 -1.900990 -37.005943 249 249 249
7.353535 -1.939394 -37.753536 247 247 247
1.173167 -0.299532 -5.830889 244 244 244
1.201878 -0.300469 -5.849139 248 248 248
1.211553 -0.299766 -5.835441 248 248 248
1.615686 -0.376471 -7.328628 225 225 225
1.629775 -0.376102 -7.321450 223 223 223
1.662136 -0.372816 -7.257476 227 227 227
1.674419 -0.372093 -7.243411 229 229 229
9.462365 -2.064516 -40.189247 228 228 228
9.202072 -1.989637 -38.731606 229 229 229
0.885813 -0.189817 -3.695106 210 210 210
1.774408 -0.363981 -7.085498 127 127 127
1.791271 -0.364326 -7.092220 101 101 101
1.803030 -0.363636 -7.078788 97 97 97
1.051844 -0.205238 -3.995297 186 186 186
1.051404 -0.203498 -3.961420 189 189 189
1.049869 -0.201575 -3.923990 194 194 194
1.050000 -0.200000 -3.893333 204 204 204
1.050672 -0.198552 -3.865150 212 212 212
3.924528 -0.724528 -14.104152 226 226 226
5.972752 -1.046322 -20.368393 209 209 209
1.610427 -0.278059 -5.412889 184 184 184
1.521312 -0.251803 -4.901771 194 194 194
1.530800 -0.251638 -4.898559 194 194 194
1.546351 -0.252465 -4.914661 186 186 186
1.555848 -0.252300 -4.911432 152 152 152
1.173228 -0.188976 -3.678740 164 164 164
8.080268 -1.284281 -25.000669 214 214 214
8.079734 -1.275748 -24.834553 225 225 225
8.270270 -1.297297 -25.254055 230 230 230
8.352542 -1.301695 -25.339663 234 234 234
1.254745 -0.191808 -3.733866 230 230 230
1.637066 -0.247104 -4.810296 231 231 231
3.521739 -0.521739 -10.156522 160 160 160
2.598020 -0.380198 -7.401188 63 63 63
1.585586 -0.216216 -4.209009 56 56 56
1.594595 -0.216216 -4.209009 61 61 61
1.821297 -0.235006 -4.574786 65 65 65
1.832211 -0.235150 -4.577588 68 68 68
1.944978 -0.245681 -4.782598 68 68 68
1.955214 -0.245681 -4.782598 57 57 57
4.373938 -0.543909 -10.588102 65 65 65
4.051680 -0.496124 -9.657882 84 84 84
3.248980 -0.391837 -7.627755 111 111 111
3.786543 -0.445476 -8.671926 122 122 122
1.629921 -0.188976 -3.678740 59 59 59
100.848488 -11.636364 -226.521225 65 65 65
95.542854 -10.971429 -213.577148 106 106 106
105.000000 -12.000000 -233.600006 80 80 80
72.510635 -8.170213 -159.046814 50 50 50
2.059684 -0.224693 -4.374020 59 59 59
2.975207 -0.317355 -6.177851 70 70 70
8.053452 -0.855234 -16.648552 70 70 70
3.375224 -0.344704 -6.710234 51 51 51
3.801193 -0.381710 -7.430616 51 51 51
12.757475 -1.275748 -24.834553 49 49 49
12.768212 -1.271523 -24.752319 45 45 45
12.906667 -1.280000 -24.917334 47 47 47
12.874172 -1.271523 -24.752319 46 46 46
3.427580 -0.333044 -6.483261 36 36 36
3.432526 -0.332180 -6.466436 27 27 27
3.616637 -0.347197 -6.758770 24 24 24
10.694736 -1.010526 -19.671579 28 28 28
3.242902 -0.302839 -5.895268 26 26 26
33.000000 -3.000000 -58.400002 20 20 20
33.777779 -3.047619 -59.326984 23 23 23
2.825947 -0.246628 -4.801028 24 24 24
42.113209 -3.622642 -70.520760 18 18 18
-4.731978 -0.739372 -13.817375 170 170 170
-4.676471 -0.735294 -13.741177 160 160 160
-1.236220 -0.196850 -3.678740 182 182 182
-4.000000 -0.645161 -12.056774 205 205 205
-1.767575 -0.286944 -5.362411 202 202 202
-1.748571 -0.285714 -5.339429 205 205 205
-1.737143 -0.285714 -5.339429 208 208 208
-1.715909 -0.284091 -5.309091 205 205 205
-7.290520 -1.223242 -22.859940 200 200 200
-7.197568 -1.215806 -22.720974 198 198 198
-6.897361 -1.173020 -21.921408 198 198 198
-1.155466 -0.200602 -3.748847 65 65 65
-1.144000 -0.200000 -3.737600 73 73 73
-1.134865 -0.199800 -3.733866 180 180 180
-14.278481 -2.531646 -47.311394 191 191 191
-13.742332 -2.453988 -45.860123 188 188 188
-28.467533 -5.194805 -97.080521 194 194 194
-2.782609 -0.511509 -9.559079 194 194 194
-2.751592 -0.509554 -9.522548 190 190 190
-1.403694 -0.263852 -4.930871 186 186 186
-8.769875 -1.673640 -31.276989 223 223 223
-10.019418 -1.941748 -36.287380 222 222 222
-3.652174 -0.724638 -13.542029 209 209 209
-1.217717 -0.249532 -4.663257 193 193 193
-1.208489 -0.249688 -4.666167 191 191 191
-1.195517 -0.249066 -4.654546 192 192 192
-7.428571 -1.587302 -29.663492 224 224 224
-7.138462 -1.538462 -28.750771 230 230 230
-1.278666 -0.277971 -5.194719 230 230 230
-1.946638 -0.426894 -7.977802 226 226 226
-1.919321 -0.424628 -7.935457 220 220 220
-10.634730 -2.395210 -44.761677 205 205 205
-10.232558 -2.325581 -43.460464 201 201 201
-10.198831 -2.339181 -43.714622 198 198 198
-10.105263 -2.339181 -43.714622 197 197 197
-10.011696 -2.339181 -43.714622 198 198 198
-9.691428 -2.285714 -42.715431 202 202 202
-2.429197 -0.583942 -10.912701 227 227 227
-2.364419 -0.573888 -10.724821 244 244 244
-2.433735 -0.602410 -11.257832 250 250 250
-2.409639 -0.602410 -11.257832 251 251 251
-4.472622 -1.152738 -21.542364 237 237 237
-4.426513 -1.152738 -21.542364 240 240 240
-3.209039 -1.129943 -21.116385 239 239 239
-3.154930 -1.126761 -21.056902 241 241 241
-1.237984 -0.468933 -8.763423 175 175 175
-1.219226 -0.468933 -8.763423 180 180 180
-1.199063 -0.468384 -8.753161 188 188 188
-1.574603 -0.634921 -11.865397 236 236 236
-0.691358 -0.352734 -6.591887 231 231 231
-1.002611 -0.522193 -9.758747 226 226 226
-0.980443 -0.521512 -9.746024 216 216 216
-0.963351 -0.523560 -9.784293 232 232 232
-0.637681 -0.362319 -6.771015 235 235 235
-0.431046 -0.256575 -4.794868 232 232 232
-0.419974 -0.256082 -4.785659 217 217 217
-31.111111 -22.222221 -415.288910 210 210 210
-40.615383 -30.769230 -575.015381 200 200 200
-26.947369 -21.052631 -393.431580 200 200 200
-24.799999 -20.000000 -373.760010 221 221 221
-32.000000 -26.666666 -498.346680 248 248 248
-21.090910 -18.181818 -339.781830 253 253 253
-20.363636 -18.181818 -339.781830 254 254 254
-21.600000 -20.000000 -373.760010 254 254 254
-27.733334 -26.666666 -498.346680 255 255 255
-21.052631 -21.052631 -393.431580 255 255 255
-20.210526 -21.052631 -393.431580 255 255 255
-33.454544 -36.363636 -679.563660 255 255 255
-39.111111 -44.444443 -830.577820 255 255 255
-37.333332 -44.444443 -830.577820 252 252 252
-0.134879 -0.421496 -7.876923 205 205 205
-0.118770 -0.424178 -7.927042 198 198 198
-0.102019 -0.425080 -7.943890 198 198 198
-0.008303 -0.207577 -3.879190 192 192 192
0.070796 -1.769912 -33.076107 186 186 186
0.020434 -0.255428 -4.773436 137 137 137
0.059925 -0.374532 -6.999251 183 183 183
0.075259 -0.376294 -7.032173 207 207 207
0.065844 -0.205761 -3.845268 225 225 225
0.082347 -0.205867 -3.847247 218 218 218
0.926316 -2.105263 -39.343159 211 211 211
0.101803 -0.212089 -3.963521 208 208 208
0.229226 -0.286533 -5.354728 225 225 225
1.187097 -1.290323 -24.113548 204 204 204
21.894737 -21.052631 -393.431580 241 241 241
19.636364 -18.181818 -339.781830 245 245 245
22.400000 -20.000000 -373.760010 248 248 248
27.294117 -23.529411 -439.717651 244 244 244
25.263159 -21.052631 -393.431580 245 245 245
33.066666 -26.666666 -498.346680 240 240 240
46.545456 -36.363636 -679.563660 238 238 238
71.111115 -44.444443 -830.577820 243 243 243
59.636364 -36.363636 -679.563660 248 248 248
67.199997 -40.000000 -747.520020 249 249 249
78.222221 -44.444443 -830.577820 253 253 253
62.666668 -33.333332 -622.933350 253 253 253
40.421051 -21.052631 -393.431580 253 253 253
43.555557 -22.222221 -415.288910 253 253 253
42.105263 -21.052631 -393.431580 254 254 254
45.333332 -22.222221 -415.288910 253 253 253
43.789474 -21.052631 -393.431580 252 252 252
65.230766 -30.769230 -575.015381 242 242 242
66.461540 -30.769230 -575.015381 219 219 219
0.656115 -0.287770 -5.377842 243 243 243
0.745304 -0.300526 -5.616229 235 235 235
0.776797 -0.252207 -4.713241 238 238 238
1.055235 -0.329761 -6.162572 221 221 221
1.064914 -0.328677 -6.142317 225 225 225
1.084298 -0.330579 -6.177851 233 233 233
0.752539 -0.213789 -3.995297 245 245 245
7.236181 -2.010050 -37.563820 249 249 249
7.390863 -2.030457 -37.945179 246 246 246
1.042581 -0.258065 -4.822710 210 210 210
1.308975 -0.317712 -5.937411 226 226 226
3.039427 -0.716846 -13.396416 225 225 225
1.660524 -0.387973 -7.250437 227 227 227
1.672798 -0.387222 -7.236399 230 230 230
9.107693 -2.051282 -38.334358 229 229 229
0.993953 -0.219901 -4.109511 180 180 180
1.767619 -0.380952 -7.119238 176 176 176
1.804739 -0.379147 -7.085498 117 117 117
1.814745 -0.378072 -7.065407 101 101 101
1.045528 -0.214247 -4.003857 181 181 181
1.050129 -0.206718 -3.863153 214 214 214
3.924528 -0.754717 -14.104152 223 223 223
3.932458 -0.750469 -14.024766 224 224 224
1.356104 -0.253004 -4.728147 185 185 185
3.016393 -0.546448 -10.212022 217 217 217
3.038251 -0.546448 -10.212022 202 202 202
1.549407 -0.263505 -4.924374 197 197 197
1.331115 -0.221852 -4.145979 208 208 208
7.793549 -1.290323 -24.113548 222 222 222
7.921824 -1.302932 -24.349186 229 229 229
8.298306 -1.355932 -25.339663 231 231 231
8.493151 -1.369863 -25.600000 231 231 231
1.256628 -0.200100 -3.739470 233 233 233
1.639175 -0.257732 -4.816495 232 232 232
1.352227 -0.202429 -3.782996 73 73 73
8.530121 -1.204819 -22.515663 56 56 56
1.783162 -0.242277 -4.527680 106 106 106
1.943734 -0.255754 -4.779540 106 106 106
4.338983 -0.564972 -10.558192 77 77 77
4.361582 -0.564972 -10.558192 80 80 80
1.789049 -0.230548 -4.308473 73 73 73
2.831216 -0.362976 -6.783303 63 63 63
4.097812 -0.514800 -9.620592 73 73 73
95.085716 -11.428572 -213.577148 59 59 59
101.333336 -12.121212 -226.521225 80 80 80
112.000000 -13.333333 -249.173340 84 84 84
91.243240 -10.810811 -202.032440 70 70 70
5.010340 -0.590842 -11.041655 63 63 63
5.026549 -0.589971 -11.025369 59 59 59
2.059684 -0.234055 -4.374020 63 63 63
3.797418 -0.397219 -7.423237 38 38 38
12.768212 -1.324503 -24.752319 28 28 28
10.479784 -1.078167 -20.148788 36 36 36
3.413882 -0.342759 -6.405484 24 24 24
3.129909 -0.302115 -5.645922 15 15 15
3.137255 -0.301659 -5.637406 19 19 19
34.285713 -3.174603 -59.326984 19 19 19
24.959999 -2.285714 -42.715431 27 27 27
2.825947 -0.256904 -4.801028 27 27 27
44.480000 -4.000000 -74.751999 20 20 20
-4.808906 -0.771800 -13.868646 37 37 37
-4.731978 -0.768946 -13.817375 173 173 173
-4.659341 -0.761905 -13.690843 142 142 142
-4.012945 -0.673139 -12.095793 202 202 202
-1.771387 -0.299065 -5.373976 200 200 200
-1.747323 -0.296931 -5.335618 204 204 204
-1.733428 -0.296507 -5.328012 205 205 205
-1.713475 -0.295035 -5.301560 202 202 202
-7.241590 -1.272171 -22.859940 198 198 198
-1.154887 -0.208521 -3.746968 63 63 63
-24.430107 -4.473118 -80.378494 182 182 182
-2.629108 -0.488263 -8.773709 187 187 187
-2.751592 -0.529936 -9.522548 187 187 187
-1.420808 -0.275679 -4.953744 178 178 178
-1.405548 -0.274769 -4.937385 156 156 156
-9.952153 -1.990431 -35.766510 224 224 224
-9.735849 -1.962264 -35.260380 225 225 225
-1.310968 -0.268387 -4.822710 217 217 217
-2.645333 -0.554667 -9.966933 202 202 202
-2.569191 -0.543081 -9.758747 197 197 197
-1.223058 -0.260652 -4.683710 194 194 194
-1.211514 -0.260325 -4.677847 192 192 192
-1.197008 -0.259352 -4.660349 194 194 194
-7.261539 -1.600000 -28.750771 227 227 227
-7.145038 -1.587786 -28.531298 234 234 234
-2.101382 -0.479263 -8.611981 225 225 225
-1.921360 -0.442083 -7.943890 219 219 219
-9.965714 -2.377143 -42.715431 195 195 195
-9.931034 -2.390805 -42.960922 192 192 192
-9.782857 -2.377143 -42.715431 190 190 190
-9.528090 -2.337079 -41.995506 194 194 194
-2.436310 -0.609078 -10.944656 207 207 207
-2.364419 -0.596844 -10.724821 219 219 219
-2.413273 -0.627451 -11.274812 247 247 247
-1.263889 -0.361111 -6.488889 252 252 252
-1.637621 -0.575380 -10.339143 204 204 204
-1.613260 -0.574586 -10.324862 206 206 206
-1.219226 -0.487691 -8.763423 127 127 127
-1.199063 -0.487119 -8.753161 185 185 185
-0.745011 -0.307465 -5.524908 213 213 213
-1.001304 -0.542373 -9.746024 216 216 216
-0.626024 -0.378526 -6.801820 233 233 233
-0.431599 -0.267180 -4.801028 224 224 224
-0.420243 -0.266496 -4.788725 209 209 209
-0.577617 -0.375451 -6.746571 205 205 205
-45.538460 -32.000000 -575.015381 217 217 217
-48.000000 -34.666668 -622.933350 221 221 221
-34.000000 -26.000000 -467.200012 212 212 212
-35.200001 -27.733334 -498.346680 202 202 202
-26.947369 -21.894737 -393.431580 202 202 202
-24.799999 -20.799999 -373.760010 225 225 225
-32.000000 -27.733334 -498.346680 250 250 250
-23.200001 -20.799999 -373.760010 254 254 254
-21.333334 -19.809525 -355.961914 254 254 254
-22.736841 -21.894737 -393.431580 253 253 253
-27.733334 -27.733334 -498.346680 254 254 254
-22.222221 -23.111111 -415.288910 255 255 255
-20.210526 -21.894737 -393.431580 255 255 255
-30.666666 -34.666668 -622.933350 255 255 255
-35.200001 -41.599998 -747.520020 254 254 254
-37.333332 -46.222221 -830.577820 249 249 249
-0.101911 -0.441614 -7.935457 202 202 202
0.000000 -0.233053 -4.187787 197 197 197
0.071111 -1.848889 -33.223110 182 182 182
0.139738 -1.816594 -32.642796 101 101 101
0.030534 -0.264631 -4.755217 152 152 152
0.059869 -0.389149 -6.992703 180 180 180
0.075259 -0.391345 -7.032173 193 193 193
0.110403 -0.220807 -3.967728 196 196 196
0.118833 -0.220690 -3.965623 189 189 189
0.229226 -0.297994 -5.354728 219 219 219
0.240343 -0.297568 -5.347067 212 212 212
17.600000 -20.799999 -373.760010 208 208 208
23.111111 -23.111111 -415.288910 243 243 243
19.636364 -18.909090 -339.781830 241 241 241
20.363636 -18.909090 -339.781830 241 241 241
24.421053 -21.894737 -393.431580 241 241 241
24.000000 -20.799999 -373.760010 241 241 241
33.066666 -27.733334 -498.346680 237 237 237
51.200001 -41.599998 -747.520020 240 240 240
48.000000 -37.818180 -679.563660 236 236 236
36.266666 -27.733334 -498.346680 225 225 225
0.729167 -0.541667 -9.733334 213 213 213
0.745149 -0.538163 -9.670376 209 209 209
53.818180 -37.818180 -679.563660 219 219 219
50.666668 -34.666668 -622.933350 218 218 218
64.000000 -41.599998 -747.520020 247 247 247
54.666668 -34.666668 -622.933350 250 250 250
61.090908 -37.818180 -679.563660 251 251 251
70.400002 -41.599998 -747.520020 253 253 253
55.384617 -32.000000 -575.015381 253 253 253
66.909088 -37.818180 -679.563660 254 254 254
62.666668 -34.666668 -622.933350 254 254 254
40.421051 -21.894737 -393.431580 254 254 254
52.266666 -27.733334 -498.346680 253 253 253
44.444443 -23.111111 -415.288910 252 252 252
54.400002 -27.733334 -498.346680 247 247 247
46.222221 -23.111111 -415.288910 251 251 251
70.666664 -34.666668 -622.933350 247 247 247
72.000000 -34.666668 -622.933350 223 223 223
0.729927 -0.253041 -4.546959 231 231 231
1.777778 -0.592593 -10.648434 225 225 225
1.828571 -0.594286 -10.678858 221 221 221
1.851429 -0.594286 -10.678858 227 227 227
0.731680 -0.229201 -4.118567 251 251 251
7.466667 -2.133333 -38.334358 241 241 241
0.821372 -0.217915 -3.915767 248 248 248
0.834563 -0.219178 -3.938462 214 214 214
0.841220 -0.218717 -3.930179 202 202 202
1.312102 -0.331210 -5.951592 215 215 215
1.321684 -0.330421 -5.937411 222 222 222
3.267176 -0.793893 -14.265649 224 224 224
1.674419 -0.403101 -7.243411 226 226 226
9.107693 -2.133333 -38.334358 227 227 227
2.282828 -0.525253 -9.438384 182 182 182
8.941176 -2.039216 -36.643139 164 164 164
60.387096 -13.419354 -241.135483 182 182 182
6.532872 -1.439446 -25.865746 179 179 179
6.680702 -1.459649 -26.228773 173 173 173
6.769231 -1.454545 -26.137064 127 127 127
1.451327 -0.306785 -5.512684 180 180 180
1.446064 -0.303207 -5.448397 187 187 187
1.440922 -0.299712 -5.385591 198 198 198
1.435897 -0.296296 -5.324217 205 205 205
1.433004 -0.293371 -5.271650 213 213 213
1.430168 -0.290503 -5.220112 218 218 218
3.917137 -0.783427 -14.077590 224 224 224
3.939850 -0.781955 -14.051128 225 225 225
7.708029 -1.518248 -27.281752 226 226 226
3.008174 -0.566758 -10.184196 214 214 214
3.029973 -0.566758 -10.184196 212 212 212
3.055934 -0.567531 -10.198091 209 209 209
1.147947 -0.205839 -3.698763 198 198 198
1.149606 -0.204724 -3.678740 197 197 197
1.173228 -0.204724 -3.678740 200 200 200
8.161074 -1.395973 -25.084564 227 227 227
8.326530 -1.414966 -25.425852 229 229 229
1.259779 -0.208626 -3.748847 229 229 229
1.260219 -0.207378 -3.726421 225 225 225
3.683453 -0.598561 -10.755684 179 179 179
1.352227 -0.210526 -3.782996 61 61 61
2.168404 -0.333601 -5.994547 59 59 59
2.179487 -0.333333 -5.989744 54 54 54
14.461538 -2.000000 -35.938461 77 77 77
1.822302 -0.248062 -4.457484 80 80 80
4.332863 -0.586742 -10.543301 88 88 88
2.833787 -0.377838 -6.789464 61 61 61
3.683721 -0.483721 -8.692093 70 70 70
4.995582 -0.612666 -11.009131 51 51 51
5.026549 -0.613569 -11.025369 49 49 49
2.058480 -0.243275 -4.371462 50 50 50
6.198953 -0.726003 -13.045725 46 46 46
26.474821 -2.992806 -53.778419 51 51 51
1.960042 -0.218717 -3.930179 54 54 54
1.967420 -0.218602 -3.928114 50 50 50
1.971683 -0.218144 -3.919874 44 44 44
3.542214 -0.390244 -7.012383 37 37 37
3.918367 -0.424490 -7.627755 27 27 27
33.637794 -3.275591 -58.859844 17 17 17
24.959999 -2.377143 -42.715431 17 17 17
5.896907 -0.536082 -9.632990 31 31 31
6.095238 -0.550265 -9.887831 11 11 11
12.952381 -1.165266 -20.938936 8 8 8
-2.815300 -0.472131 -8.169618 122 122 122
-4.642336 -0.788321 -13.640876 111 111 111
-4.112026 -0.711697 -12.314992 176 176 176
-4.025974 -0.701299 -12.135065 188 188 188
-7.263803 -1.325153 -22.930061 191 191 191
-1.474608 -0.270846 -4.686646 173 173 173
-1.453640 -0.268824 -4.651649 80 80 80
-2.769231 -0.519231 -8.984615 57 57 57
-2.685579 -0.510638 -8.835934 185 185 185
-1.489618 -0.289350 -5.006832 194 194 194
-1.479893 -0.289544 -5.010188 200 200 200
-1.468185 -0.289350 -5.006832 201 201 201
-1.438083 -0.287617 -4.976831 188 188 188
-1.424585 -0.287043 -4.966910 180 180 180
-9.811320 -2.037736 -35.260380 209 209 209
-9.600000 -2.009302 -34.768372 224 224 224
-9.525581 -2.009302 -34.768372 225 225 225
-1.212273 -0.270507 -4.680777 191 191 191
-1.289100 -0.292485 -5.061070 222 222 222
-6.985075 -1.611940 -27.892538 240 240 240
-2.101382 -0.497696 -8.611981 226 226 226
-1.784990 -0.438134 -7.581339 200 200 200
-0.958242 -0.237363 -4.107253 195 195 195
-0.949451 -0.237363 -4.107253 191 191 191
-9.422222 -2.400000 -41.528889 193 193 193
-0.952948 -0.257296 -4.452174 237 237 237
-2.401225 -0.661562 -11.447474 206 206 206
-0.949407 -0.269831 -4.669082 247 247 247
-1.263889 -0.375000 -6.488889 247 247 247
-1.244598 -0.373379 -6.460847 236 236 236
-1.252925 -0.388839 -6.728353 235 235 235
-2.190871 -0.896266 -15.508714 191 191 191
-1.200469 -0.506448 -8.763423 187 187 187
-1.002611 -0.563969 -9.758747 213 213 213
-0.635379 -0.389892 -6.746571 227 227 227
-0.626594 -0.393443 -6.808015 233 233 233
-0.612022 -0.393443 -6.808015 222 222 222
-0.578662 -0.390597 -6.758770 225 225 225
-37.000000 -27.000000 -467.200012 232 232 232
-38.400002 -28.799999 -498.346680 233 233 233
-26.666666 -20.571428 -355.961914 232 232 232
-30.222221 -24.000000 -415.288910 228 228 228
-33.000000 -27.000000 -467.200012 227 227 227
-26.947369 -22.736841 -393.431580 225 225 225
-26.105263 -22.736841 -393.431580 228 228 228
-34.285713 -30.857143 -533.942871 250 250 250
-25.777779 -24.000000 -415.288910 253 253 253
-22.400000 -21.600000 -373.760010 254 254 254
-24.000000 -24.000000 -415.288910 253 253 253
-26.000000 -27.000000 -467.200012 254 254 254
-23.529411 -25.411764 -439.717651 255 255 255
-24.000000 -27.000000 -467.200012 253 253 253
-28.307692 -33.230770 -575.015381 247 247 247
-32.000000 -39.272728 -679.563660 248 248 248
-0.101480 -0.456660 -7.901903 212 212 212
0.000000 -0.241611 -4.180761 195 195 195
0.071111 -1.920000 -33.223110 180 180 180
0.140351 -1.894737 -32.785965 152 152 152
0.075543 -0.407932 -7.058735 184 184 184
0.105572 -0.316716 -5.480352 215 215 215
0.128093 -0.314410 -5.440466 209 209 209
0.138428 -0.311464 -5.389474 196 196 196
0.229062 -0.309234 -5.350895 209 209 209
0.240172 -0.308792 -5.343246 206 206 206
19.555555 -24.000000 -415.288910 206 206 206
26.000000 -27.000000 -467.200012 238 238 238
21.600000 -21.600000 -373.760010 240 240 240
20.363636 -19.636364 -339.781830 242 242 242
24.421053 -22.736841 -393.431580 242 242 242
22.857143 -20.571428 -355.961914 242 242 242
29.176470 -25.411764 -439.717651 241 241 241
42.666668 -36.000000 -622.933350 243 243 243
35.200001 -28.799999 -498.346680 235 235 235
30.222221 -24.000000 -415.288910 219 219 219
50.909092 -39.272728 -679.563660 213 213 213
48.000000 -36.000000 -622.933350 215 215 215
49.333332 -36.000000 -622.933350 217 217 217
46.769230 -33.230770 -575.015381 219 219 219
69.333336 -48.000000 -830.577820 239 239 239
64.000000 -43.200001 -747.520020 255 255 255
59.636364 -39.272728 -679.563660 253 253 253
61.090908 -39.272728 -679.563660 251 251 251
58.666668 -36.000000 -622.933350 254 254 254
48.000000 -28.799999 -498.346680 253 253 253
61.333332 -36.000000 -622.933350 254 254 254
53.714287 -30.857143 -533.942871 254 254 254
42.666668 -24.000000 -415.288910 253 253 253
56.000000 -30.857143 -533.942871 250 250 250
44.444443 -24.000000 -415.288910 239 239 239
54.400002 -28.799999 -498.346680 234 234 234
48.941177 -25.411764 -439.717651 244 244 244
70.666664 -36.000000 -622.933350 251 251 251
72.000000 -36.000000 -622.933350 227 227 227
113.777779 -48.000000 -830.577820 219 219 219
86.666664 -36.000000 -622.933350 205 205 205
1.264151 -0.509434 -8.815095 185 185 185
1.828571 -0.617143 -10.678858 226 226 226
1.851429 -0.617143 -10.678858 232 232 232
2.106509 -0.639053 -11.057988 245 245 245
2.149254 -0.644776 -11.157015 247 247 247
7.750000 -2.250000 -38.933334 239 239 239
1.086280 -0.305516 -5.286563 247 247 247
1.095272 -0.304869 -5.275371 248 248 248
1.541985 -0.412214 -7.132824 199 199 199
1.315243 -0.344773 -5.965842 208 208 208
1.583254 -0.411037 -7.112464 218 218 218
1.584906 -0.407547 -7.052076 226 226 226
1.674419 -0.418605 -7.243411 225 225 225
9.298429 -2.261780 -39.137173 225 225 225
9.005025 -2.170854 -37.563820 220 220 220
8.897561 -2.107317 -36.464390 170 170 170
6.680702 -1.515790 -26.228773 117 117 117
6.736842 -1.515790 -26.228773 68 68 68
1.442815 -0.316716 -5.480352 175 175 175
1.443959 -0.314410 -5.440466 191 191 191
1.438849 -0.310791 -5.377842 200 200 200
1.433855 -0.307255 -5.316643 205 205 205
1.429979 -0.304011 -5.260521 212 212 212
1.427178 -0.301045 -5.209199 218 218 218
3.902439 -0.810507 -14.024766 227 227 227
3.932458 -0.810507 -14.024766 228 228 228
4.084453 -0.829175 -14.347793 227 227 227
3.004082 -0.587755 -10.170341 204 204 204
3.025850 -0.587755 -10.170341 195 195 195
2.869240 -0.537983 -9.309092 207 207 207
1.148515 -0.213861 -3.700594 210 210 210
1.165354 -0.212598 -3.678740 203 203 203
1.173228 -0.212598 -3.678740 203 203 203
1.181102 -0.212598 -3.678740 214 214 214
1.188976 -0.212598 -3.678740 222 222 222
8.298306 -1.464407 -25.339663 231 231 231
8.522337 -1.484536 -25.687973 236 236 236
3.741176 -0.635294 -10.992942 132 132 132
3.694084 -0.623377 -10.786725 65 65 65
3.633286 -0.609309 -10.543301 56 56 56
3.580111 -0.596685 -10.324862 56 56 56
2.603175 -0.428571 -7.415873 57 57 57
3.068493 -0.493151 -8.533334 56 56 56
10.400000 -1.661538 -28.750771 61 61 61
1.859264 -0.278890 -4.825823 68 68 68
1.864778 -0.278171 -4.813394 80 80 80
1.879923 -0.278890 -4.825823 73 73 73
1.887814 -0.278530 -4.819601 61 61 61
4.365782 -0.637168 -11.025369 84 84 84
4.395864 -0.638109 -11.041655 92 92 92
14.531401 -2.086957 -36.112080 84 84 84
14.751220 -2.107317 -36.464390 101 101 101
1.809524 -0.257143 -4.449524 92 92 92
1.822302 -0.257603 -4.457484 84 84 84
9.690852 -1.362776 -23.581074 101 101 101
2.833787 -0.392371 -6.789464 70 70 70
1.654886 -0.224532 -3.885239 63 63 63
1.963248 -0.256076 -4.431061 61 61 61
2.408602 -0.309677 -5.358566 59 59 59
4.995582 -0.636230 -11.009131 49 49 49
5.026549 -0.637168 -11.025369 42 42 42
27.058823 -3.176471 -54.964706 44 44 44
27.582090 -3.223881 -55.785076 42 42 42
1.962105 -0.227368 -3.934316 56 56 56
1.969490 -0.227249 -3.932246 47 47 47
1.972718 -0.226653 -3.921931 42 42 42
3.535581 -0.404494 -6.999251 38 38 38
10.551352 -1.167568 -20.203243 25 25 25
3.285476 -0.360601 -6.239733 25 25 25
38.429905 -4.037383 -69.861687 25 25 25
7.333333 -0.750000 -12.977778 20 20 20
24.818182 -2.454545 -42.472729 24 24 24
2.417391 -0.234783 -4.062609 20 20 20
5.889318 -0.555985 -9.620592 47 47 47
6.071146 -0.569170 -9.848748 13 13 13
-4.740741 -0.829630 -13.842963 132 132 132
-4.125620 -0.740496 -12.355702 106 106 106
-4.019449 -0.726094 -12.115397 132 132 132
-3.898734 -0.708861 -11.827848 173 173 173
-3.686747 -0.674699 -11.257832 182 182 182
-2.277097 -0.422243 -7.045429 195 195 195
-2.033898 -0.379661 -6.334916 199 199 199
-2.832723 -0.547009 -9.127229 88 88 88
-2.782609 -0.541063 -9.028020 156 156 156
-2.688757 -0.530178 -8.846391 194 194 194
-1.506389 -0.301278 -5.027034 202 202 202
-1.491616 -0.300469 -5.013548 212 212 212
-1.481879 -0.300671 -5.016913 211 211 211
-1.470154 -0.300469 -5.013548 197 197 197
-1.453574 -0.299265 -4.993454 189 189 189
-1.438083 -0.298269 -4.976831 186 186 186
-1.426480 -0.298071 -4.973520 186 186 186
-1.410205 -0.296885 -4.953744 184 184 184
-9.674418 -2.083721 -34.768372 204 204 204
-9.297297 -2.018018 -33.672073 216 216 216
-9.309091 -2.036364 -33.978184 219 219 219
-2.717808 -0.613699 -10.240001 209 209 209
-2.688524 -0.612022 -10.212022 202 202 202
-1.212273 -0.280526 -4.680777 189 189 189
-0.983103 -0.229391 -3.827548 186 186 186
-14.303030 -3.393939 -56.630306 236 236 236
-6.700361 -1.617329 -26.986282 239 239 239
-17.864079 -4.349514 -72.574760 233 233 233
-1.203252 -0.303523 -5.064499 203 203 203
-1.477966 -0.379661 -6.334916 200 200 200
-0.946849 -0.245479 -4.096000 197 197 197
-0.938082 -0.245479 -4.096000 190 190 190
-0.965352 -0.267622 -4.465472 205 205 205
-0.953516 -0.266984 -4.454827 209 209 209
-0.961803 -0.280526 -4.680777 209 209 209
-0.947631 -0.279302 -4.660349 241 241 241
-4.288185 -1.291066 -21.542364 252 252 252
-4.181818 -1.272727 -21.236364 250 250 250
-1.262793 -0.388552 -6.483261 243 243 243
-1.245675 -0.387543 -6.466436 241 241 241
-134.399994 -44.799999 -747.520020 235 235 235
-1.589116 -0.609524 -10.170341 170 170 170
-3.076923 -1.230769 -20.536264 195 195 195
-2.793651 -1.422222 -23.730795 231 231 231
