ply
format ascii 1.0
element vertex 1173
property float x
property float y
property float z
property uchar red
property uchar green
property uchar blue
end_header
-4.186529 4.518135 -19.365803 178 178 178
-2.007683 2.233035 -9.571319 160 160 160
-1.977070 2.221656 -9.522548 152 152 152
-1.966709 2.233035 -9.571319 164 164 164
-1.943734 2.230179 -9.559079 167 167 167
-2.261398 2.650456 -11.360487 173 173 173
-2.809160 3.328244 -14.265649 175 175 175
-2.698039 3.419608 -14.657255 160 160 160
-2.651072 3.399610 -14.571540 142 142 142
-1.406780 1.847458 -7.918644 175 175 175
-4.142395 5.644013 -24.191586 179 179 179
-3.356948 4.752044 -20.368393 175 175 175
-3.112329 4.778082 -20.480001 176 176 176
-2.641148 4.172249 -17.883255 164 164 164
-3.669173 6.556391 -28.102257 167 167 167
-1.388128 2.654490 -11.377778 178 178 178
-0.995475 1.972851 -8.456109 173 173 173
-1.624521 3.340996 -14.320307 160 160 160
-1.829596 3.910314 -16.760538 160 160 160
-2.795539 6.483272 -27.788849 173 173 173
-2.686131 6.364964 -27.281752 173 173 173
-1.833333 4.541667 -19.466667 164 164 164
-1.787013 4.529870 -19.416105 160 160 160
-4.535433 13.732284 -58.859844 167 167 167
-4.307693 13.415384 -57.501541 164 164 164
-4.184616 13.415384 -57.501541 156 156 156
-6.168674 21.012049 -90.062653 142 142 142
-0.655290 2.976109 -12.756314 160 160 160
-0.593592 2.940978 -12.605734 173 173 173
-0.567568 2.945946 -12.627028 178 178 178
-0.338624 2.306878 -9.887831 173 173 173
-0.317041 2.303831 -9.874769 167 167 167
-0.295905 2.303831 -9.874769 167 167 167
-0.275132 2.306878 -9.887831 170 170 170
-0.255319 2.319149 -9.940426 170 170 170
-0.169213 2.049354 -8.784019 170 170 170
-0.982456 15.298245 -65.571930 173 173 173
-0.105263 2.868421 -12.294737 175 175 175
-0.051948 2.831169 -12.135065 164 164 164
0.000000 1.970621 -8.446554 173 173 173
0.133971 2.086124 -8.941628 147 147 147
0.602410 2.626506 -11.257832 147 147 147
0.878049 3.544715 -15.193497 137 137 137
0.908722 3.537525 -15.162678 142 142 142
0.945010 3.551935 -15.224441 152 152 152
1.906137 6.296029 -26.986282 176 176 176
2.545455 7.927273 -33.978184 152 152 152
0.961373 2.494993 -10.694135 132 132 132
0.978663 2.480797 -10.633286 122 122 122
14.978724 37.106384 -159.046814 111 111 111
1.022727 2.477273 -10.618182 106 106 106
0.937580 2.221656 -9.522548 117 117 117
2.285714 4.700809 -20.148788 117 117 117
3.914163 7.484979 -32.082405 111 111 111
2.996979 5.268882 -22.583687 137 137 137
3.027027 5.237237 -22.448050 137 137 137
21.787233 37.106384 -159.046814 132 132 132
1.229379 1.970621 -8.446554 164 164 164
2.099291 3.092199 -13.253901 179 179 179
3.555556 5.099415 -21.857311 170 170 170
3.634218 5.144543 -22.050737 176 176 176
3.681416 5.144543 -22.050737 173 173 173
6.994535 9.530055 -40.848087 170 170 170
2.944568 3.866962 -16.574724 180 180 180
15.818182 19.818182 -84.945457 156 156 156
15.648352 19.164835 -82.145058 137 137 137
14.545455 17.616161 -75.507072 137 137 137
13.963636 15.854546 -67.956367 173 173 173
2.120735 2.288714 -9.809974 170 170 170
2.138925 2.285714 -9.797117 167 167 167
18.109890 19.164835 -82.145058 164 164 164
3.608511 3.710638 -15.904681 164 164 164
3.611814 3.679325 -15.770465 164 164 164
7.230125 7.297071 -31.276989 156 156 156
2.682927 2.658537 -11.395123 147 147 147
2.719755 2.670750 -11.447474 152 152 152
2.727550 2.654490 -11.377778 164 164 164
2.760305 2.662596 -11.412519 164 164 164
6.279863 5.952219 -25.512629 170 170 170
1.903590 1.788718 -7.666872 173 173 173
1.923946 1.792395 -7.682631 173 173 173
1.934426 1.786885 -7.659017 152 152 152
1.944842 1.781410 -7.635547 142 142 142
2.235157 2.030268 -8.702212 156 156 156
36.528301 32.905659 -141.041519 152 152 152
36.830189 32.905659 -141.041519 152 152 152
45.090908 39.636364 -169.890915 142 142 142
17.964912 15.298245 -65.571930 127 127 127
17.793104 15.034483 -64.441383 117 117 117
17.478992 14.655462 -62.816807 122 122 122
3.073446 2.463277 -10.558192 101 101 101
2.370985 1.807254 -7.746322 88 88 88
2.395010 1.812890 -7.770478 92 92 92
7.584415 5.662338 -24.270130 106 106 106
156.800003 116.266670 -498.346680 84 84 84
2.749712 2.011534 -8.621915 84 84 84
2.784223 2.023202 -8.671926 122 122 122
161.066666 116.266670 -498.346680 117 117 117
152.000000 109.000000 -467.200012 88 88 88
31.792208 22.649351 -97.080521 92 92 92
30.799999 21.799999 -93.440002 97 97 97
4.397163 3.092199 -13.253901 97 97 97
4.419580 3.048951 -13.068532 73 73 73
10.390438 6.948207 -29.781673 88 88 88
10.371542 6.893281 -29.546246 101 101 101
10.232558 6.759690 -28.973644 132 132 132
3.550802 2.331551 -9.993583 156 156 156
3.342995 2.106280 -9.028020 70 70 70
3.357314 2.091127 -8.963070 70 70 70
3.364397 2.083632 -8.930944 77 77 77
7.956044 4.791209 -20.536264 77 77 77
15.741936 9.376344 -40.189247 73 73 73
3.842440 2.216010 -9.498348 57 57 57
3.150769 1.788718 -7.666872 59 59 59
3.469256 1.881338 -8.063862 51 51 51
3.467811 1.871245 -8.020601 51 51 51
18.834286 9.965714 -42.715431 56 56 56
27.966387 14.655462 -62.816807 51 51 51
14.133333 7.266667 -31.146667 54 54 54
14.141079 7.236515 -31.017427 61 61 61
5.149701 2.610778 -11.190419 63 63 63
5.173653 2.610778 -11.190419 53 53 53
5.174366 2.599106 -11.140388 50 50 50
10.880000 5.366154 -23.000616 42 42 42
9.108911 4.316832 -18.502972 51 51 51
9.171216 4.327543 -18.548883 68 68 68
16.941177 7.891403 -33.824436 92 92 92
12.438709 5.625806 -24.113548 38 38 38
12.370607 5.571885 -23.882429 31 31 31
12.264984 5.501577 -23.581074 31 31 31
12.049383 5.382716 -23.071606 31 31 31
4.320527 1.914380 -8.205489 29 29 29
4.338090 1.914380 -8.205489 33 33 33
53.621620 23.567568 -101.016220 37 37 37
52.421051 22.947369 -98.357895 37 37 37
51.692307 22.358974 -95.835899 27 27 27
10.084367 4.327543 -18.548883 28 28 28
7.772296 3.309298 -14.184441 23 23 23
6.504673 2.716511 -11.643614 20 20 20
6.550000 2.725000 -11.680000 18 18 18
32.744186 13.519380 -57.947289 12 12 12
32.868217 13.519380 -57.947289 17 17 17
34.048000 13.952000 -59.801601 22 22 22
34.451614 14.064516 -60.283871 17 17 17
34.861790 14.178862 -60.773987 15 15 15
35.278690 14.295082 -61.272133 15 15 15
36.302521 14.655462 -62.816807 18 18 18
5.711286 2.288714 -9.809974 13 13 13
21.132076 8.226415 -35.260380 16 16 16
21.107981 8.187794 -35.094837 11 11 11
21.283018 8.226415 -35.260380 13 13 13
28.700001 10.900000 -46.720001 13 13 13
28.621119 10.832298 -46.429813 14 14 14
27.360947 10.319527 -44.231953 19 19 19
-38.231579 18.189474 -78.686317 77 77 77
-36.160000 17.280001 -74.751999 84 84 84
-8.906801 4.352645 -18.829220 77 77 77
-8.648648 4.245700 -18.366585 65 65 65
-8.525547 4.204380 -18.187836 65 65 65
-8.466020 4.194175 -18.143690 73 73 73
-3.674074 1.828571 -7.910265 80 80 80
-3.653277 1.826638 -7.901903 84 84 84
-3.632524 1.824710 -7.893559 80 80 80
-3.623281 1.828571 -7.910265 77 77 77
-3.579832 1.815126 -7.852101 77 77 77
-5.067873 2.606335 -11.274812 70 70 70
-5.074355 2.622155 -11.343247 70 70 70
-5.050076 2.622155 -11.343247 80 80 80
-3.772210 1.968109 -8.513895 70 70 70
-21.866667 11.520000 -49.834667 65 65 65
-22.204082 11.755102 -50.851704 70 70 70
-22.246574 11.835616 -51.200001 80 80 80
-269.333344 144.000000 -622.933350 84 84 84
-14.071428 7.714286 -33.371429 111 111 111
-9.217911 5.158209 -22.314030 88 88 88
-9.142858 5.142857 -22.247620 111 111 111
-3.941722 2.288742 -9.900928 111 111 111
-3.925333 2.304000 -9.966933 101 101 101
-12.117155 7.230125 -31.276989 117 117 117
-12.203390 7.322034 -31.674578 127 127 127
-5.435700 3.316699 -14.347793 142 142 142
-5.404990 3.316699 -14.347793 122 122 122
-5.415861 3.342360 -14.458801 106 106 106
-3.069460 1.905182 -8.241676 101 101 101
-11.661017 7.322034 -31.674578 122 122 122
-2.956522 1.878261 -8.125217 127 127 127
-3.534641 2.258824 -9.771503 122 122 122
-3.513726 2.258824 -9.771503 117 117 117
-3.887407 2.560000 -11.074370 147 147 147
-3.869436 2.563798 -11.090801 137 137 137
-3.164619 2.122850 -9.183292 160 160 160
-2.735484 1.858065 -8.037849 142 142 142
-2.706638 1.850107 -8.003427 117 117 117
-2.686631 1.848128 -7.994866 106 106 106
-40.131149 28.327869 -122.544266 156 156 156
-2.982368 2.176322 -9.414610 117 117 117
-2.951066 2.168130 -9.379172 127 127 127
-2.920000 2.160000 -9.344000 147 147 147
-3.282051 2.461539 -10.648434 137 137 137
-33.432835 25.791044 -111.570152 156 156 156
-34.750000 27.000000 -116.800003 152 152 152
-2.395628 1.888525 -8.169618 160 160 160
-15.652174 12.521739 -54.168118 122 122 122
-15.304348 12.521739 -54.168118 152 152 152
-5.189189 4.670270 -20.203243 152 152 152
-5.159892 4.682927 -20.257996 170 170 170
-11.654321 10.666667 -46.143211 173 173 173
-11.555555 10.666667 -46.143211 164 164 164
-11.746836 10.936708 -47.311394 178 178 178
-6.388889 6.000000 -25.955557 175 175 175
-2.500724 2.500724 -10.817945 179 179 179
-2.484761 2.507982 -10.849347 179 179 179
-2.465116 2.511628 -10.865116 181 181 181
-35.000000 36.000000 -155.733337 176 176 176
-30.814816 32.000000 -138.429626 179 179 179
-2.030769 2.215385 -9.583590 160 160 160
-2.010257 2.215385 -9.583590 170 170 170
-1.979592 2.204082 -9.534694 170 170 170
-1.966709 2.212548 -9.571319 160 160 160
-1.946223 2.212548 -9.571319 152 152 152
-2.292683 2.634146 -11.395123 156 156 156
-2.257967 2.622155 -11.343247 170 170 170
-2.803810 3.291429 -14.238477 173 173 173
-1.813333 2.304000 -9.966933 164 164 164
-3.728614 5.097345 -22.050737 181 181 181
-2.561331 3.592516 -15.540956 182 182 182
-44.444443 64.000000 -276.859253 181 181 181
-34.823528 50.823528 -219.858826 182 182 182
-3.112329 4.734247 -20.480001 182 182 182
-1.292534 2.115055 -9.149571 164 164 164
-3.180428 5.284404 -22.859940 160 160 160
-1.218863 2.089480 -9.038937 182 182 182
-1.212422 2.146584 -9.285963 182 182 182
-1.388128 2.630137 -11.377778 176 176 176
-1.416393 2.832787 -12.254427 167 167 167
-1.385621 2.823529 -12.214379 160 160 160
-1.833708 3.883146 -16.798203 175 175 175
-6.779661 14.644068 -63.349155 167 167 167
-2.805970 6.447761 -27.892538 175 175 175
-2.715867 6.376384 -27.583765 170 170 170
-0.901126 2.162703 -9.355695 152 152 152
-0.876712 2.151930 -9.309092 152 152 152
-0.813896 2.143921 -9.274442 132 132 132
-1.006289 2.716981 -11.753459 152 152 152
-4.210526 12.992481 -56.204514 170 170 170
-4.184616 13.292308 -57.501541 164 164 164
-6.095238 20.571428 -88.990479 147 147 147
-5.714286 20.571428 -88.990479 156 156 156
-1.836066 7.081967 -30.636066 156 156 156
-2.285714 12.992481 -56.204514 176 176 176
-0.316623 2.279683 -9.861742 152 152 152
-0.400000 3.085714 -13.348572 147 147 147
-0.370107 3.074733 -13.301068 167 167 167
-0.714286 7.714286 -33.371429 170 170 170
-0.189573 4.094787 -17.713745 179 179 179
-0.112412 4.046838 -17.506323 170 170 170
-0.025848 2.791599 -12.076252 167 167 167
1.066667 38.400002 -166.115555 152 152 152
1.422222 38.400002 -166.115555 164 164 164
1.739130 37.565216 -162.504349 152 152 152
2.165414 12.992481 -56.204514 156 156 156
0.591497 3.194085 -13.817375 160 160 160
0.470588 2.310160 -9.993583 142 142 142
0.490013 2.300932 -9.953662 137 137 137
3.175573 13.190840 -57.062595 156 156 156
0.878049 3.512195 -15.193497 132 132 132
0.908722 3.505071 -15.162678 152 152 152
1.138340 3.415020 -14.773123 127 127 127
0.877345 2.493506 -10.786725 127 127 127
11.508772 30.315790 -131.143860 147 147 147
0.938776 2.204082 -9.534694 132 132 132
3.813084 8.074766 -34.930843 142 142 142
0.916155 1.766871 -7.643354 127 127 127
2.185185 4.000000 -17.303703 132 132 132
2.232558 4.018605 -17.384186 137 137 137
2.996979 5.220544 -22.583687 127 127 127
3.017964 5.173653 -22.380838 132 132 132
22.260870 37.565216 -162.504349 122 122 122
3.587021 5.097345 -22.050737 176 176 176
3.677612 5.158209 -22.314030 173 173 173
3.736527 5.173653 -22.380838 164 164 164
1.800570 2.461539 -10.648434 152 152 152
1.451366 1.888525 -8.169618 170 170 170
16.000000 20.329412 -87.943535 176 176 176
15.636364 19.636364 -84.945457 167 167 167
15.818182 19.636364 -84.945457 160 160 160
15.644444 19.200001 -83.057777 156 156 156
3.172113 3.764706 -16.285839 167 167 167
5.602888 6.238267 -26.986282 175 175 175
2.346667 2.560000 -11.074370 167 167 167
4.674157 4.853932 -20.997753 167 167 167
3.593220 3.661017 -15.837289 164 164 164
3.596639 3.630252 -15.704202 160 160 160
2.694992 2.622155 -11.343247 160 160 160
6.204082 5.877551 -25.425852 170 170 170
1.901639 1.770492 -7.659017 167 167 167
1.916070 1.768680 -7.651177 160 160 160
1.930470 1.766871 -7.643354 137 137 137
1.940877 1.761468 -7.619980 132 132 132
36.528301 32.603775 -141.041519 147 147 147
3.418803 2.953846 -12.778120 147 147 147
3.416949 2.928813 -12.669831 156 156 156
17.982302 15.292035 -66.152214 156 156 156
17.964912 15.157895 -65.571930 132 132 132
17.491526 14.644068 -63.349155 117 117 117
17.049181 14.163935 -61.272133 127 127 127
9.851851 8.000000 -34.607407 111 111 111
4.139450 3.170642 -13.715963 101 101 101
2.388309 1.803758 -7.802923 73 73 73
2.410042 1.807531 -7.819247 77 77 77
2.429319 1.809424 -7.827435 88 88 88
2.693970 1.965870 -8.504210 77 77 77
161.066666 115.199997 -498.346680 101 101 101
162.133331 115.199997 -498.346680 106 106 106
4.356021 3.015707 -13.045725 101 101 101
3.555556 2.313253 -10.006962 152 152 152
3.567423 2.307076 -9.980241 117 117 117
5.241905 3.291429 -14.238477 97 97 97
18.374193 11.148387 -48.227097 101 101 101
7.783784 4.670270 -20.203243 84 84 84
7.912568 4.721312 -20.424044 80 80 80
7.891599 4.682927 -20.257996 65 65 65
7.217184 4.124105 -17.840572 63 63 63
3.127572 1.777778 -7.690535 70 70 70
3.160494 1.777778 -7.690535 65 65 65
5.912381 3.291429 -14.238477 65 65 65
16.580311 8.953368 -38.731606 50 50 50
16.242424 8.727273 -37.753536 46 46 46
28.203390 14.644068 -63.349155 54 54 54
28.338984 14.644068 -63.349155 53 53 53
14.372881 7.322034 -31.674578 53 53 53
14.259415 7.230125 -31.276989 53 53 53
13.862349 6.995952 -30.263968 53 53 53
5.142857 2.571429 -11.123810 50 50 50
10.846625 5.300613 -22.930061 40 40 40
15.322034 7.322034 -31.674578 42 42 42
9.086420 4.266667 -18.457285 44 44 44
9.194030 4.298508 -18.595026 49 49 49
9.233830 4.298508 -18.595026 61 61 61
17.413954 8.037210 -34.768372 65 65 65
12.490322 5.574193 -24.113548 30 30 30
12.382166 5.503185 -23.806370 31 31 31
12.238244 5.416928 -23.433229 28 28 28
12.061539 5.316923 -23.000616 28 28 28
4.339581 1.905182 -8.241676 32 32 32
4.347635 1.900990 -8.223542 35 35 35
51.740261 22.441559 -97.080521 35 35 35
9.189931 3.954233 -17.105721 27 27 27
7.713748 3.254237 -14.077590 23 23 23
82.509804 33.882355 -146.572556 21 21 21
70.295082 28.327869 -122.544266 15 15 15
5.666667 2.250000 -9.733334 12 12 12
5.643411 2.232558 -9.657882 15 15 15
53.658535 21.073172 -91.160980 16 16 16
50.181820 19.636364 -84.945457 16 16 16
4.612903 1.741935 -7.535484 9 9 9
28.981133 10.867925 -47.013836 7 7 7
27.040936 10.105263 -43.714622 10 10 10
-5.027933 2.391062 -10.440224 80 80 80
-4.977778 2.377778 -10.382222 88 88 88
-8.504854 4.155340 -18.143690 56 56 56
-3.666315 1.807814 -7.893559 80 80 80
-3.640212 1.811640 -7.910265 88 88 88
-3.627119 1.813559 -7.918644 88 88 88
-3.767918 1.947668 -8.504210 77 77 77
-21.264517 11.045161 -48.227097 65 65 65
-21.437908 11.189543 -48.857517 68 68 68
-21.798658 11.489933 -50.169128 80 80 80
-13.743589 7.316239 -31.945299 77 77 77
-14.080000 7.608889 -33.223110 137 137 137
-3.890819 2.124069 -9.274442 97 97 97
-3.870968 2.124069 -9.274442 88 88 88
-9.156343 5.050148 -22.050737 92 92 92
-10.388889 5.944445 -25.955557 132 132 132
-10.405595 5.986014 -26.137064 137 137 137
-18.734177 10.835443 -47.311394 127 127 127
-12.135593 7.254237 -31.674578 137 137 137
-5.456647 3.298651 -14.403083 122 122 122
-5.415385 3.292308 -14.375385 117 117 117
-5.436893 3.324272 -14.514952 122 122 122
-11.466666 7.133333 -31.146667 137 137 137
-2.726305 1.823216 -7.960810 147 147 147
-2.720856 1.831016 -7.994866 152 152 152
-2.703743 1.831016 -7.994866 147 147 147
-2.683761 1.829060 -7.986325 156 156 156
-3.862928 2.666667 -11.643614 142 142 142
-12.345178 8.690355 -37.945179 117 117 117
-3.405714 2.445714 -10.678858 152 152 152
-3.392550 2.452722 -10.709455 117 117 117
-3.364807 2.449213 -10.694135 117 117 117
-2.927318 2.145363 -9.367419 142 142 142
-32.941177 25.176470 -109.929413 160 160 160
-34.215385 26.338461 -115.003082 147 147 147
-33.969231 26.338461 -115.003082 152 152 152
-2.395628 1.871038 -8.169618 160 160 160
-15.428572 12.228572 -53.394287 137 137 137
-15.309353 12.316546 -53.778419 167 167 167
-15.304348 12.405797 -54.168118 170 170 170
-14.657343 11.972028 -52.274128 164 164 164
-13.945946 11.567568 -50.508110 176 176 176
-14.027397 11.726027 -51.200001 170 170 170
-7.304348 6.202899 -27.084059 167 167 167
-2.090713 1.848812 -8.072571 147 147 147
-5.217391 4.652174 -20.313044 152 152 152
-11.726708 10.633540 -46.429813 156 156 156
-11.345454 10.375757 -45.304245 156 156 156
-3.308378 3.051693 -13.324778 167 167 167
-1.925453 1.823216 -7.960810 156 156 156
-3.162791 3.317829 -14.486822 167 167 167
-2.063857 2.186462 -9.546871 167 167 167
-2.038217 2.180892 -9.522548 167 167 167
-2.025575 2.189258 -9.559079 160 160 160
-2.007683 2.192061 -9.571319 170 170 170
-1.974555 2.178117 -9.510433 167 167 167
-1.964194 2.189258 -9.559079 164 164 164
-1.943734 2.189258 -9.559079 156 156 156
-2.251135 2.590015 -11.308927 170 170 170
-1.834667 2.282667 -9.966933 173 173 173
-1.813333 2.282667 -9.966933 173 173 173
-1.801609 2.294906 -10.020375 170 170 170
-1.777778 2.291834 -10.006962 173 173 173
-2.550725 3.544513 -15.476605 178 178 178
-25.391304 37.217392 -162.504349 175 175 175
-3.120879 4.703297 -20.536264 170 170 170
-3.209877 5.283951 -23.071606 160 160 160
-1.245742 2.082725 -9.093918 167 167 167
-5.844311 10.251497 -44.761677 175 175 175
-1.391304 2.481159 -10.833624 173 173 173
-1.386018 2.601824 -11.360487 173 173 173
-4.476684 8.870466 -38.731606 167 167 167
-2.795539 6.364312 -27.788849 160 160 160
-0.902256 2.145363 -9.367419 160 160 160
-0.876712 2.132005 -9.309092 164 164 164
-0.855721 2.129353 -9.297513 152 152 152
-0.812887 2.121437 -9.262949 152 152 152
-4.121212 12.969697 -56.630306 156 156 156
-3.512195 13.918699 -60.773987 164 164 164
-3.382114 13.918699 -60.773987 170 170 170
-6.295082 28.065575 -122.544266 164 164 164
-0.335274 1.993015 -8.702212 170 170 170
-0.316279 1.990698 -8.692093 167 167 167
-0.632768 4.836158 -21.116385 111 111 111
-0.215544 1.774093 -7.746322 142 142 142
-1.230769 11.972028 -52.274128 147 147 147
-0.130969 2.335607 -10.198091 170 170 170
-0.111888 3.990676 -17.424709 160 160 160
0.000000 2.743590 -11.979487 152 152 152
0.800000 85.599998 -373.760010 156 156 156
0.176147 3.141284 -13.715963 170 170 170
0.306620 2.982579 -13.022997 147 147 147
0.359862 2.961938 -12.932873 170 170 170
0.590406 3.158672 -13.791883 167 167 167
0.700952 3.260952 -14.238477 132 132 132
0.874494 3.465587 -15.131984 137 137 137
0.906883 3.465587 -15.131984 164 164 164
0.476876 1.759507 -7.682631 176 176 176
34.133335 114.133331 -498.346680 152 152 152
0.939551 2.956822 -12.910536 156 156 156
12.936171 36.425533 -159.046814 137 137 137
0.888889 2.438746 -10.648434 142 142 142
3.272727 7.781818 -33.978184 167 167 167
0.960409 2.186462 -9.546871 173 173 173
4.156863 8.392157 -36.643139 117 117 117
4.194175 8.310679 -36.287380 127 127 127
2.712644 4.919540 -21.480461 173 173 173
2.987952 5.156627 -22.515663 147 147 147
3.017964 5.125749 -22.380838 156 156 156
4.262295 7.016394 -30.636066 167 167 167
4.400000 7.133333 -31.146667 167 167 167
2.647482 4.105515 -17.926140 152 152 152
3.715170 5.300310 -23.143034 173 173 173
2.090452 2.867672 -12.521274 132 132 132
1.805714 2.445714 -10.678858 127 127 127
1.658986 1.972350 -8.611981 147 147 147
2.285714 2.574436 -11.240903 160 160 160
5.605839 6.248175 -27.281752 167 167 167
5.582734 6.158273 -26.889210 164 164 164
7.882927 8.351219 -36.464390 137 137 137
7.960976 8.351219 -36.464390 142 142 142
3.182320 3.152854 -13.766483 152 152 152
2.952224 2.820428 -12.314992 164 164 164
6.133333 5.706666 -24.917334 180 180 180
1.952821 1.755897 -7.666872 160 160 160
38.720001 34.240002 -149.503998 160 160 160
3.407155 2.916525 -12.734583 156 156 156
3.411168 2.896785 -12.648393 152 152 152
18.472727 15.563637 -67.956367 137 137 137
17.808695 14.886956 -65.001740 117 117 117
4.997579 4.145278 -18.099758 106 106 106
5.075060 4.145278 -18.099758 97 97 97
5.052631 4.095694 -17.883255 111 111 111
2.513482 2.007034 -8.763423 106 106 106
2.529274 2.004684 -8.753161 84 84 84
2.539090 1.997666 -8.722521 70 70 70
2.554779 1.995338 -8.712355 73 73 73
2.395812 1.792670 -7.827435 73 73 73
2.942529 2.186462 -9.546871 88 88 88
2.959184 2.183673 -9.534694 111 111 111
27.720930 19.906977 -86.920929 132 132 132
4.391608 2.993007 -13.068532 88 88 88
4.404181 2.982579 -13.022997 92 92 92
3.517426 2.294906 -10.020375 117 117 117
3.543624 2.297987 -10.033826 111 111 111
3.555556 2.291834 -10.006962 84 84 84
3.553191 2.276596 -9.940426 77 77 77
5.281853 3.305019 -14.430888 97 97 97
7.762803 4.614555 -20.148788 80 80 80
7.891008 4.664850 -20.368393 80 80 80
7.934605 4.664850 -20.368393 84 84 84
42.057144 24.457144 -106.788574 68 68 68
10.242214 5.923875 -25.865746 73 73 73
10.369338 5.965157 -26.045994 92 92 92
7.217184 4.085919 -17.840572 80 80 80
3.127572 1.761317 -7.690535 92 92 92
3.137577 1.757700 -7.674744 106 106 106
3.157246 1.759507 -7.682631 92 92 92
3.125506 1.732794 -7.565992 77 77 77
3.705069 1.972350 -8.611981 47 47 47
29.451328 15.150442 -66.152214 92 92 92
28.827587 14.758620 -64.441383 88 88 88
31.563637 15.563637 -67.956367 59 59 59
36.618557 17.649485 -77.063919 53 53 53
5.224964 2.484761 -10.849347 51 51 51
15.193277 7.193277 -31.408403 54 54 54
17.923077 8.230769 -35.938461 51 51 51
17.413954 7.962790 -34.768372 51 51 51
17.488373 7.962790 -34.768372 50 50 50
17.400921 7.889401 -34.447926 46 46 46
132.413788 59.034481 -257.765533 45 45 45
116.848488 51.878788 -226.521225 40 40 40
12.264984 5.400631 -23.581074 36 36 36
12.161994 5.333333 -23.287228 30 30 30
12.061539 5.267692 -23.000616 30 30 30
52.421051 22.526316 -98.357895 26 26 26
74.370369 31.703703 -138.429626 21 21 21
86.127663 36.425533 -159.046814 26 26 26
92.363640 38.909092 -169.890915 29 29 29
7.699248 3.218045 -14.051128 27 27 27
16.647774 6.931174 -30.263968 24 24 24
16.446215 6.820717 -29.781673 25 25 25
71.199997 28.533333 -124.586670 17 17 17
68.825394 27.174603 -118.653969 12 12 12
64.000000 25.176470 -109.929413 11 11 11
58.666668 22.826666 -99.669334 12 12 12
50.181820 19.454546 -84.945457 15 15 15
5.721584 2.186462 -9.546871 10 10 10
13.333333 5.005848 -21.857311 9 9 9
26.124294 9.672317 -42.232769 9 9 9
-35.801979 16.792080 -74.011887 70 70 70
-6.835249 3.249042 -14.320307 56 56 56
-5.198212 2.527571 -11.140388 68 68 68
-20.345678 10.469136 -46.143211 70 70 70
-20.122700 10.404908 -45.860123 70 70 70
-13.973799 7.406114 -32.642796 73 73 73
-14.151111 7.537778 -33.223110 84 84 84
-14.206278 7.605381 -33.521076 97 97 97
-13.824561 7.438597 -32.785965 97 97 97
-3.890819 2.104218 -9.274442 80 80 80
-3.866171 2.101611 -9.262949 80 80 80
-3.836836 2.096415 -9.240049 92 92 92
-3.802956 2.088670 -9.205912 106 106 106
-14.264151 8.000000 -35.260380 132 132 132
-14.323810 8.076191 -35.596191 132 132 132
-10.535212 5.971831 -26.321127 127 127 127
-10.405595 5.930070 -26.137064 122 122 122
-5.596958 3.224335 -14.211408 137 137 137
-5.555977 3.218216 -14.184441 117 117 117
-12.084388 7.156118 -31.540930 117 117 117
-5.435700 3.255278 -14.347793 106 106 106
-5.394636 3.249042 -14.320307 106 106 106
-5.447471 3.299611 -14.543191 101 101 101
-5.395711 3.306043 -14.571540 101 101 101
-5.333333 3.286822 -14.486822 106 106 106
-4.963391 3.267823 -14.403083 132 132 132
-2.677895 1.785263 -7.868632 132 132 132
-3.454039 2.362117 -10.411142 147 147 147
-3.426982 2.358832 -10.396663 142 142 142
-3.385892 2.345782 -10.339143 142 142 142
-12.345178 8.609137 -37.945179 122 122 122
-3.385049 2.392102 -10.543301 164 164 164
-3.405714 2.422857 -10.678858 147 147 147
-3.382857 2.422857 -10.678858 122 122 122
-3.355207 2.419401 -10.663624 117 117 117
-32.941177 24.941177 -109.929413 127 127 127
-33.696968 25.696970 -113.260612 122 122 122
-33.454544 25.696970 -113.260612 173 173 173
-15.006897 11.696551 -51.553104 179 179 179
-14.865249 12.028369 -53.015606 164 164 164
-14.040816 11.537415 -50.851704 164 164 164
-7.470588 6.235294 -27.482353 147 147 147
-7.384615 6.212454 -27.381685 147 147 147
-2.883721 2.465116 -10.865116 147 147 147
-5.231607 4.621253 -20.368393 156 156 156
-11.654321 10.469136 -46.143211 164 164 164
-3.290780 3.007092 -13.253901 160 160 160
-6.237288 5.749153 -25.339663 164 164 164
-2.075567 2.136020 -9.414610 137 137 137
-3.187500 3.312500 -14.600000 170 170 170
-1.961686 2.166028 -9.546871 167 167 167
-1.941252 2.166028 -9.546871 152 152 152
-1.911055 2.155019 -9.498348 152 152 152
-17.523809 20.190475 -88.990479 170 170 170
-9.846154 14.495727 -63.890598 160 160 160
-2.417266 4.067146 -17.926140 156 156 156
-5.951220 10.341463 -45.580490 167 167 167
-1.389291 2.454414 -10.817945 173 173 173
-0.997849 1.823656 -8.037849 160 160 160
-1.388128 2.581431 -11.377778 170 170 170
-0.821355 1.741273 -7.674744 170 170 170
-0.905660 2.133333 -9.402767 160 160 160
-0.883312 2.127980 -9.379172 175 175 175
-0.857855 2.114713 -9.320699 164 164 164
-0.835821 2.109453 -9.297513 167 167 167
-0.812887 2.101611 -9.262949 170 170 170
-0.787208 2.086101 -9.194589 152 152 152
-3.483871 13.677420 -60.283871 147 147 147
-3.382114 13.788618 -60.773987 156 156 156
-0.402186 1.853552 -8.169618 164 164 164
-0.335274 1.974389 -8.702212 170 170 170
-0.681818 4.818182 -21.236364 156 156 156
-0.640000 4.845714 -21.357716 127 127 127
-0.349515 4.116505 -18.143690 156 156 156
-0.207024 3.134935 -13.817375 173 173 173
-0.177122 3.129151 -13.791883 178 178 178
-0.147601 3.129151 -13.791883 175 175 175
0.000000 2.704944 -11.922170 164 164 164
0.842105 89.263161 -393.431580 152 152 152
0.318182 4.818182 -21.236364 152 152 152
0.406780 4.790960 -21.116385 132 132 132
0.251309 2.219895 -9.784293 132 132 132
1.030812 4.750700 -20.938936 147 147 147
0.476876 1.743063 -7.682631 176 176 176
6.857143 24.228571 -106.788574 142 142 142
7.188406 24.579710 -108.336235 142 142 142
0.915078 2.939341 -12.955286 156 156 156
0.934708 2.914089 -12.843987 164 164 164
1.172277 3.358416 -14.802377 142 142 142
13.511111 37.688889 -166.115555 137 137 137
0.650794 1.682540 -7.415873 156 156 156
1.731959 4.371134 -19.265980 160 160 160
1.773300 4.272040 -18.829220 176 176 176
1.042146 2.166028 -9.546871 137 137 137
1.496774 2.735484 -12.056774 164 164 164
2.712644 4.873563 -21.480461 178 178 178
2.243678 3.898851 -17.184368 152 152 152
2.386946 3.953380 -17.424709 164 164 164
1.636641 2.589313 -11.412519 142 142 142
1.690658 2.597244 -11.447474 132 132 132
1.720430 2.605223 -11.482642 111 111 111
3.726708 5.267081 -23.214907 156 156 156
2.101010 2.855219 -12.584512 137 137 137
1.330561 1.762994 -7.770478 164 164 164
2.613546 3.378486 -14.890837 152 152 152
1.385567 1.748454 -7.706392 147 147 147
1.394872 1.739487 -7.666872 142 142 142
2.483754 3.061372 -13.493141 122 122 122
1.662818 1.958430 -8.631871 132 132 132
1.687138 1.965237 -8.661878 156 156 156
1.690012 1.947187 -8.582319 152 152 152
1.712313 1.951669 -8.602072 152 152 152
1.740741 1.962963 -8.651852 137 137 137
5.626374 6.212454 -27.381685 137 137 137
5.623188 6.144928 -27.084059 152 152 152
2.325581 2.465116 -10.865116 142 142 142
8.079208 8.396040 -37.005943 137 137 137
3.164835 3.106227 -13.690843 142 142 142
3.229358 3.111927 -13.715963 164 164 164
2.961983 2.803306 -12.355702 152 152 152
6.112957 5.634552 -24.834553 170 170 170
5.918495 5.316615 -23.433229 164 164 164
6.451613 5.470968 -24.113548 156 156 156
19.169811 16.000000 -70.520760 122 122 122
4.997579 4.106537 -18.099758 106 106 106
4.952381 4.038095 -17.798096 97 97 97
3.677530 2.909091 -12.821956 84 84 84
2.545029 1.983626 -8.742924 80 80 80
2.557760 1.978997 -8.722521 101 101 101
2.390805 1.772205 -7.811077 122 122 122
4.094915 2.874576 -12.669831 97 97 97
2.819222 1.940503 -8.552860 84 84 84
2.834286 1.938286 -8.543086 97 97 97
2.852571 1.938286 -8.543086 92 92 92
2.870857 1.938286 -8.543086 88 88 88
8.722408 5.672241 -25.000669 70 70 70
33.599998 21.200001 -93.440002 97 97 97
5.271318 3.286822 -14.486822 88 88 88
5.281853 3.274131 -14.430888 80 80 80
5.333333 3.230476 -14.238477 73 73 73
7.869565 4.608696 -20.313044 97 97 97
7.870270 4.583784 -20.203243 117 117 117
42.434784 24.579710 -108.336235 97 97 97
10.385965 5.950877 -26.228773 88 88 88
3.068718 1.739487 -7.666872 152 152 152
7.286747 4.086747 -18.012531 122 122 122
3.124358 1.743063 -7.682631 122 122 122
3.127943 1.735926 -7.651177 106 106 106
3.137896 1.732380 -7.635547 111 111 111
3.125506 1.716599 -7.565992 80 80 80
7.860349 4.229426 -18.641397 59 59 59
7.939850 4.250627 -18.734838 57 57 57
3.292658 1.753878 -7.730300 51 51 51
4.122449 2.163265 -9.534694 68 68 68
4.127065 2.155019 -9.498348 57 57 57
5.597270 2.894198 -12.756314 65 65 65
30.814816 15.703704 -69.214813 70 70 70
30.678900 15.559633 -68.579819 65 65 65
18.666666 9.422222 -41.528889 54 54 54
18.549450 9.318682 -41.072529 54 54 54
31.279280 15.279280 -67.344147 61 61 61
36.244900 17.306122 -76.277550 53 53 53
4.747020 2.246358 -9.900928 49 49 49
9.074627 4.218905 -18.595026 49 49 49
9.009708 4.116505 -18.143690 50 50 50
17.407408 7.851852 -34.607407 56 56 56
17.321100 7.779817 -34.289909 46 46 46
13.755396 6.100719 -26.889210 37 37 37
128.000000 56.533333 -249.173340 36 36 36
110.171425 48.457142 -213.577148 36 36 36
12.137931 5.316615 -23.433229 33 33 33
12.098765 5.234568 -23.071606 33 33 33
76.075470 32.000000 -141.041519 23 23 23
80.959999 33.919998 -149.503998 30 30 30
86.468086 36.085106 -159.046814 34 34 34
64.705879 24.941177 -109.929413 12 12 12
51.952942 19.952942 -87.943535 13 13 13
5.659033 2.157761 -9.510433 20 20 20
5.693878 2.163265 -9.534694 22 22 22
5.721584 2.166028 -9.546871 13 13 13
31.888889 11.777778 -51.911114 12 12 12
-36.686871 16.969696 -75.507072 117 117 117
-35.106796 16.310680 -72.574760 84 84 84
-6.809160 3.206107 -14.265649 68 68 68
-4.574386 2.173351 -9.670376 68 68 68
-28.852459 13.770492 -61.272133 68 68 68
-27.590551 13.228347 -58.859844 68 68 68
-27.648001 13.440000 -59.801601 73 73 73
-11.944445 5.833333 -25.955557 73 73 73
-10.751593 5.350318 -23.806370 68 68 68
-14.222222 7.466667 -33.223110 84 84 84
-14.278027 7.533632 -33.521076 101 101 101
-14.270270 7.567567 -33.672073 97 97 97
-13.946902 7.433628 -33.076107 92 92 92
-3.900497 2.089552 -9.297513 80 80 80
-3.866171 2.081784 -9.262949 77 77 77
-3.846344 2.081784 -9.262949 77 77 77
-3.802956 2.068965 -9.205912 84 84 84
-14.197183 7.887324 -35.094837 117 117 117
-5.554717 3.169811 -14.104152 142 142 142
-5.514124 3.163842 -14.077590 137 137 137
-12.307693 7.179487 -31.945299 137 137 137
-2.948240 1.739130 -7.738303 106 106 106
-5.333333 3.181818 -14.157577 88 88 88
-9.678322 5.874126 -26.137064 80 80 80
-16.496895 10.434783 -46.429813 167 167 167
-3.543018 2.369534 -10.543301 106 106 106
-3.510549 2.362869 -10.513643 122 122 122
-3.458856 2.343096 -10.425663 137 137 137
-3.390582 2.326870 -10.353463 156 156 156
-21.008696 14.608696 -65.001740 147 147 147
-3.389831 2.372881 -10.558192 132 132 132
-3.396011 2.393162 -10.648434 137 137 137
-3.373219 2.393162 -10.648434 127 127 127
-3.317348 2.369534 -10.543301 137 137 137
-2.645235 1.928818 -8.582319 152 152 152
-6.962963 5.185185 -23.071606 142 142 142
-32.955223 25.074627 -111.570152 152 152 152
-29.013334 22.400000 -99.669334 160 160 160
-3.750000 2.916667 -12.977778 142 142 142
-7.319149 5.957447 -26.507803 152 152 152
-7.553904 6.245353 -27.788849 117 117 117
-2.886003 2.424242 -10.786725 132 132 132
-2.883721 2.441860 -10.865116 152 152 152
-3.273369 2.962963 -13.183775 156 156 156
-1.825826 1.681682 -7.482683 176 176 176
-2.106832 2.086957 -9.285963 132 132 132
-2.082603 2.102628 -9.355695 160 160 160
-2.070352 2.110553 -9.390955 152 152 152
-2.532915 2.633229 -11.716615 175 175 175
-1.628245 1.744548 -7.762409 184 184 184
-3.472036 3.758389 -16.723043 176 176 176
-1.941252 2.145594 -9.546871 160 160 160
-17.523809 20.000000 -88.990479 164 164 164
-3.386046 3.906977 -17.384186 167 167 167
-2.770428 3.268482 -14.543191 170 170 170
-142.222229 186.666672 -830.577820 167 167 167
-4.095563 5.733788 -25.512629 164 164 164
-10.666667 15.555555 -69.214813 164 164 164
-1.415121 2.396576 -10.663624 164 164 164
-1.385281 2.424242 -10.786725 156 156 156
-2.507123 4.786325 -21.296867 156 156 156
-2.433803 4.732394 -21.056902 164 164 164
-0.839506 1.728395 -7.690535 156 156 156
-0.818833 1.719550 -7.651177 156 156 156
-0.800817 1.716037 -7.635547 160 160 160
-5.705426 13.023255 -57.947289 176 176 176
-0.910240 2.123894 -9.450316 180 180 180
-0.857855 2.094763 -9.320699 178 178 178
-1.510112 3.775281 -16.798203 175 175 175
-0.808878 2.071517 -9.217263 167 167 167
-0.779537 2.046285 -9.104994 152 152 152
-0.749311 2.314049 -10.296419 147 147 147
-0.420591 1.840088 -8.187514 170 170 170
-0.844125 4.028777 -17.926140 160 160 160
-0.801909 4.009547 -17.840572 167 167 167
-0.335664 1.958042 -8.712355 180 180 180
-0.316647 1.955763 -8.702212 173 173 173
-0.689655 4.827586 -21.480461 167 167 167
-0.640000 4.800000 -21.357716 147 147 147
-0.255319 2.234043 -9.940426 156 156 156
-0.235294 2.245989 -9.993583 156 156 156
-0.346988 4.048193 -18.012531 164 164 164
-0.207024 3.105361 -13.817375 164 164 164
-0.177122 3.099631 -13.791883 167 167 167
-0.148148 3.111111 -13.842963 170 170 170
-0.036866 3.870968 -17.223963 160 160 160
0.000000 3.826879 -17.027790 170 170 170
0.036697 3.853211 -17.144955 164 164 164
0.110345 3.862069 -17.184368 147 147 147
0.139434 1.830065 -8.142920 160 160 160
0.259179 1.814255 -8.072571 152 152 152
0.278564 1.828074 -8.134059 167 167 167
0.578313 3.373494 -15.010442 160 160 160
0.360515 1.802575 -8.020601 147 147 147
0.378088 1.804511 -8.029216 142 142 142
0.395699 1.806452 -8.037849 137 137 137
0.806202 3.255814 -14.486822 147 147 147
1.087379 4.077670 -18.143690 164 164 164
0.475897 1.723077 -7.666872 147 147 147
0.916667 2.916667 -12.977778 147 147 147
0.934708 2.886598 -12.843987 142 142 142
3.469880 10.120481 -45.031326 117 117 117
3.441860 9.767442 -43.460464 111 111 111
13.217391 36.521740 -162.504349 106 106 106
0.619048 1.666667 -7.415873 106 106 106
1.768421 4.421052 -19.671579 152 152 152
1.796345 4.386423 -19.517494 164 164 164
6.230089 14.867256 -66.152214 179 179 179
6.000000 14.000000 -62.293335 180 180 180
5.983740 13.658537 -60.773987 180 180 180
5.740458 12.824428 -57.062595 175 175 175
5.731343 12.537313 -55.785076 142 142 142
2.136240 4.577657 -20.368393 122 122 122
1.266362 2.557078 -11.377778 117 117 117
1.423948 2.718446 -12.095793 111 111 111
1.452188 2.722852 -12.115397 137 137 137
4.825397 8.888889 -39.551323 164 164 164
2.720461 4.841498 -21.542364 180 180 180
3.006061 5.090909 -22.652122 175 175 175
2.322581 3.870968 -17.223963 170 170 170
2.381395 3.906977 -17.384186 175 175 175
2.412993 3.897912 -17.343851 175 175 175
2.478873 3.943662 -17.547419 142 142 142
1.666156 2.572741 -11.447474 147 147 147
1.690658 2.572741 -11.447474 147 147 147
1.720430 2.580645 -11.482642 147 147 147
8.283688 11.914893 -53.015606 152 152 152
8.109589 11.506849 -51.200001 142 142 142
3.715170 5.201238 -23.143034 160 160 160
6.196078 8.235294 -36.643139 167 167 167
1.334724 1.751825 -7.794786 175 175 175
1.390576 1.759162 -7.827435 179 179 179
1.392746 1.740933 -7.746322 178 178 178
1.666667 1.944444 -8.651852 170 170 170
1.687138 1.946698 -8.661878 176 176 176
1.690012 1.928818 -8.582319 170 170 170
1.740741 1.944444 -8.651852 170 170 170
7.879397 8.442211 -37.563820 164 164 164
8.040609 8.527919 -37.945179 160 160 160
2.245989 2.245989 -9.993583 132 132 132
2.270557 2.228117 -9.914059 137 137 137
2.945274 2.786070 -12.396684 132 132 132
2.957096 2.772277 -12.335314 122 122 122
2.993377 2.781457 -12.376160 127 127 127
6.072607 5.544554 -24.670628 137 137 137
5.881620 5.233645 -23.287228 106 106 106
1.983333 1.750000 -7.786667 106 106 106
14.892307 12.923077 -57.501541 122 122 122
2.272517 1.939954 -8.631871 106 106 106
20.118813 16.633663 -74.011887 117 117 117
4.973494 4.048193 -18.012531 92 92 92
3.032070 2.448980 -10.896793 97 97 97
3.024531 2.424242 -10.786725 92 92 92
9.025641 7.179487 -31.945299 92 92 92
3.675302 2.901554 -12.910536 92 92 92
3.671233 2.876712 -12.800000 77 77 77
10.800000 8.400000 -37.375999 80 80 80
2.548009 1.967213 -8.753161 84 84 84
11.298969 8.659794 -38.531960 106 106 106
3.593323 2.549317 -11.343247 97 97 97
3.612121 2.545455 -11.326061 88 88 88
4.584440 3.187856 -14.184441 101 101 101
2.816000 1.920000 -8.543086 92 92 92
2.834286 1.920000 -8.543086 127 127 127
2.846066 1.915621 -8.523603 137 137 137
2.857793 1.911263 -8.504210 127 127 127
33.822784 21.265823 -94.622787 88 88 88
34.461540 21.538462 -95.835899 97 97 97
12.123348 7.400881 -32.930397 77 77 77
3.618301 2.196079 -9.771503 84 84 84
4.279635 2.553191 -11.360487 70 70 70
7.697297 4.540541 -20.203243 73 73 73
7.719676 4.528302 -20.148788 70 70 70
7.721179 4.504022 -20.040751 61 61 61
7.848238 4.552845 -20.257996 65 65 65
7.806971 4.504022 -20.040751 80 80 80
20.744827 11.586206 -51.553104 84 84 84
7.272727 4.019139 -17.883255 101 101 101
3.099899 1.695257 -7.543088 88 88 88
3.116044 1.695257 -7.543088 80 80 80
7.801980 4.158416 -18.502972 61 61 61
7.920000 4.200000 -18.688000 59 59 59
5.597270 2.866894 -12.756314 54 54 54
31.102804 15.700934 -69.861687 61 61 61
18.666666 9.333333 -41.528889 46 46 46
18.549450 9.230769 -41.072529 50 50 50
31.000000 15.000000 -66.742859 49 49 49
4.753315 2.228117 -9.914059 47 47 47
3.668687 1.696970 -7.550707 49 49 49
8.888889 4.057971 -18.056040 51 51 51
17.242008 7.671233 -34.133335 47 47 47
11.962145 5.299685 -23.581074 44 44 44
14.051661 6.199262 -27.583765 49 49 49
13.855072 6.086957 -27.084059 46 46 46
120.000000 52.500000 -233.600006 41 41 41
12.062305 5.233645 -23.287228 36 36 36
12.226415 5.283019 -23.506918 29 29 29
9.233644 3.925234 -17.465422 35 35 35
9.059361 3.835616 -17.066668 32 32 32
76.377357 31.698112 -141.041519 31 31 31
79.686272 32.941177 -146.572556 34 34 34
78.769234 32.307693 -143.753845 25 25 25
6.036880 2.382979 -10.603121 19 19 19
6.076814 2.389758 -10.633286 16 16 16
14.448160 5.618729 -25.000669 20 20 20
52.571430 20.000000 -88.990479 15 15 15
5.686624 2.140127 -9.522548 26 26 26
29.506493 10.909091 -48.540260 14 14 14
40.857143 15.000000 -66.742859 12 12 12
513.777771 186.666672 -830.577820 17 17 17
-36.320000 16.639999 -74.751999 101 101 101
-10.344828 4.781609 -21.480461 84 84 84
-10.067416 4.674157 -20.997753 73 73 73
-6.796190 3.169524 -14.238477 73 73 73
-28.852459 13.639344 -61.272133 92 92 92
-27.590551 13.102363 -58.859844 84 84 84
-27.648001 13.312000 -59.801601 92 92 92
-11.903114 5.757785 -25.865746 84 84 84
-14.349775 7.461884 -33.521076 101 101 101
-14.278027 7.461884 -33.521076 132 132 132
-14.142858 7.428571 -33.371429 127 127 127
-13.885463 7.330397 -32.930397 92 92 92
-3.905355 2.072229 -9.309092 88 88 88
-3.851117 2.064516 -9.274442 84 84 84
-3.713244 2.021871 -9.082868 88 88 88
-4.869565 2.679549 -12.037359 106 106 106
-4.812800 2.662400 -11.960320 106 106 106
-45.333332 25.212122 -113.260612 106 106 106
-43.130436 24.115942 -108.336235 106 106 106
-18.048780 10.146341 -45.580490 132 132 132
-17.842424 10.084848 -45.304245 137 137 137
-17.963190 10.208589 -45.860123 122 122 122
-5.709677 3.354839 -15.070968 117 117 117
-5.688889 3.361616 -15.101415 97 97 97
-5.668016 3.368421 -15.131984 101 101 101
-9.447099 5.679181 -25.512629 84 84 84
-9.337884 5.679181 -25.512629 132 132 132
-9.066667 5.546667 -24.917334 147 147 147
-8.807817 5.420196 -24.349186 156 156 156
-17.019108 10.598726 -47.612740 132 132 132
-16.704403 10.465409 -47.013836 167 167 167
-5.096525 3.212355 -14.430888 132 132 132
-4.959064 3.243665 -14.571540 117 117 117
-3.543018 2.346967 -10.543301 122 122 122
-3.473389 2.330532 -10.469468 122 122 122
-3.441341 2.324022 -10.440224 147 147 147
-3.395284 2.307906 -10.367823 175 175 175
-3.413940 2.366999 -10.633286 156 156 156
-3.373219 2.370370 -10.648434 137 137 137
-3.312676 2.343662 -10.528451 147 147 147
-29.200001 20.799999 -93.440002 142 142 142
-27.619047 19.809525 -88.990479 142 142 142
-6.941538 5.120000 -23.000616 156 156 156
-28.631578 21.894737 -98.357895 132 132 132
-2.808843 2.163849 -9.720676 137 137 137
-2.906977 2.418605 -10.865116 152 152 152
-2.900585 2.432749 -10.928656 167 167 167
-2.415484 2.147097 -9.645420 173 173 173
-1.961408 1.888763 -8.484903 132 132 132
-1.949886 1.895216 -8.513895 147 147 147
-2.065163 2.085213 -9.367419 156 156 156
-1.626556 1.726141 -7.754357 181 181 181
-3.443946 3.730942 -16.760538 170 170 170
-3.415730 3.739326 -16.798203 170 170 170
-4.076712 4.558904 -20.480001 164 164 164
-3.354839 3.834101 -17.223963 160 160 160
-2.790698 3.224806 -14.486822 164 164 164
-2.765049 3.231068 -14.514952 164 164 164
-3.241559 4.322078 -19.416105 179 179 179
-11.294118 16.313726 -73.286278 167 167 167
-5.608247 8.577319 -38.531960 170 170 170
-0.952381 1.650794 -7.415873 137 137 137
-2.145882 3.915294 -17.588707 152 152 152
-2.018018 3.747748 -16.836037 156 156 156
-1.789709 3.722595 -16.723043 156 156 156
-0.801956 2.034230 -9.138387 156 156 156
-0.777643 2.021871 -9.082868 142 142 142
-8.470589 24.470589 -109.929413 160 160 160
-0.539110 2.002407 -8.995427 170 170 170
-0.502618 2.178010 -9.784293 167 167 167
-0.480418 2.172324 -9.758747 170 170 170
-0.685714 4.754286 -21.357716 156 156 156
-0.630986 4.687324 -21.056902 156 156 156
-0.254980 2.209827 -9.927225 164 164 164
-0.235294 2.224599 -9.993583 164 164 164
-0.213904 2.224599 -9.993583 147 147 147
-0.346154 4.000000 -17.969231 152 152 152
-0.235727 3.064457 -13.766483 170 170 170
-0.206642 3.070111 -13.791883 167 167 167
-0.176796 3.064457 -13.766483 167 167 167
-0.148423 3.087198 -13.868646 156 156 156
-0.037123 3.860789 -17.343851 160 160 160
0.000000 3.825287 -17.184368 142 142 142
0.037296 3.878788 -17.424709 132 132 132
0.074419 3.869767 -17.384186 137 137 137
0.139130 1.808696 -8.125217 173 173 173
0.208333 2.166667 -9.733334 142 142 142
0.238298 1.770213 -7.952341 132 132 132
0.257511 1.785408 -8.020601 147 147 147
0.278867 1.812636 -8.142920 164 164 164
0.608000 3.328000 -14.950400 160 160 160
0.360515 1.785408 -8.020601 160 160 160
0.378088 1.787326 -8.029216 137 137 137
0.396980 1.795038 -8.063862 117 117 117
0.782779 3.256360 -14.628572 152 152 152
0.807767 3.231068 -14.514952 132 132 132
7.402985 24.835821 -111.570152 127 127 127
0.923077 2.909091 -13.068532 137 137 137
0.939551 2.873920 -12.910536 137 137 137
3.435583 10.208589 -45.860123 132 132 132
3.449102 9.964072 -44.761677 117 117 117
0.619048 1.650794 -7.415873 156 156 156
6.518518 15.407408 -69.214813 175 175 175
5.640288 11.971223 -53.778419 122 122 122
1.294657 2.540458 -11.412519 137 137 137
1.447368 2.736842 -12.294737 117 117 117
1.459283 2.710098 -12.174593 122 122 122
4.851064 8.851064 -39.761703 142 142 142
4.989247 8.946237 -40.189247 164 164 164
2.712644 4.781609 -21.480461 181 181 181
2.766571 4.795389 -21.542364 179 179 179
2.987952 5.012048 -22.515663 182 182 182
2.333333 3.851852 -17.303703 181 181 181
2.375870 3.860789 -17.343851 173 173 173
2.418605 3.869767 -17.384186 160 160 160
2.478873 3.906103 -17.547419 147 147 147
8.402878 11.971223 -53.778419 147 147 147
8.109589 11.397261 -51.200001 147 147 147
6.106280 8.038648 -36.112080 181 181 181
1.327801 1.726141 -7.754357 184 184 184
1.348595 1.731530 -7.778564 183 183 183
1.368092 1.735141 -7.794786 182 182 182
1.389121 1.740586 -7.819247 182 182 182
1.881051 2.301522 -10.339143 164 164 164
1.936022 2.314326 -10.396663 160 160 160
1.679354 1.919262 -8.621915 173 173 173
3.843342 4.344647 -19.517494 156 156 156
3.895288 4.356021 -19.568586 152 152 152
3.926893 4.344647 -19.517494 142 142 142
3.979058 4.356021 -19.568586 142 142 142
10.775510 11.319728 -50.851704 147 147 147
2.237017 2.215712 -9.953662 122 122 122
2.950166 2.764120 -12.417276 132 132 132
2.961983 2.750413 -12.355702 132 132 132
2.998342 2.759536 -12.396684 142 142 142
6.052631 5.473684 -24.589474 122 122 122
1.989551 1.738767 -7.811077 97 97 97
1.991701 1.726141 -7.754357 122 122 122
15.244095 13.102363 -58.859844 132 132 132
2.259472 1.910448 -8.582319 137 137 137
20.783504 17.154638 -77.063919 111 111 111
5.670330 4.571429 -20.536264 122 122 122
5.683060 4.546448 -20.424044 137 137 137
3.671233 2.849315 -12.800000 92 92 92
2.553991 1.953052 -8.773709 122 122 122
5.868074 4.390501 -19.723484 117 117 117
7.757576 5.602694 -25.169024 88 88 88
3.314286 2.377143 -10.678858 106 106 106
4.541353 3.127820 -14.051128 142 142 142
2.788991 1.908257 -8.572477 122 122 122
5.026694 3.416838 -15.349487 117 117 117
2.842825 1.895216 -8.513895 132 132 132
25.029703 16.475248 -74.011887 137 137 137
8.781145 5.602694 -25.169024 88 88 88
8.805369 5.583893 -25.084564 80 80 80
8.859060 5.583893 -25.084564 84 84 84
4.105101 2.571870 -11.553633 84 84 84
4.085627 2.544343 -11.429970 111 111 111
35.840000 22.186666 -99.669334 106 106 106
3.548638 2.158236 -9.695460 84 84 84
67.902435 40.585365 -182.321960 137 137 137
4.292683 2.536585 -11.395123 111 111 111
3.520373 1.937136 -8.702212 101 101 101
7.293556 3.971360 -17.840572 92 92 92
7.763547 4.098522 -18.411823 122 122 122
7.880597 4.139304 -18.595026 97 97 97
7.979950 4.170426 -18.734838 63 63 63
3.390397 1.736952 -7.802923 63 63 63
3.432177 1.749737 -7.860358 61 61 61
4.310881 2.155440 -9.682901 63 63 63
18.373627 9.142858 -41.072529 51 51 51
18.666666 9.244445 -41.528889 46 46 46
18.549450 9.142858 -41.072529 53 53 53
4.188679 1.962264 -8.815095 54 54 54
4.753315 2.206897 -9.914059 59 59 59
8.846154 4.000000 -17.969231 45 45 45
16.932735 7.461884 -33.521076 54 54 54
11.850000 5.200000 -23.360001 46 46 46
22.697674 9.674418 -43.460464 24 24 24
22.658960 9.618497 -43.209251 27 27 27
8.977376 3.764706 -16.912218 28 28 28
9.009009 3.747748 -16.836037 28 28 28
8.984340 3.722595 -16.723043 25 25 25
75.259262 30.814816 -138.429626 25 25 25
14.352160 5.528239 -24.834553 19 19 19
14.405315 5.528239 -24.834553 20 20 20
125.257141 47.542858 -213.577148 16 16 16
5.645860 2.119745 -9.522548 16 16 16
5.659033 2.117048 -9.510433 20 20 20
5.693878 2.122449 -9.534694 21 21 21
8.356877 3.092937 -13.894424 9 9 9
42.766354 15.551402 -69.861687 9 9 9
40.280701 14.596491 -65.571930 8 8 8
-10.005509 4.539945 -20.592838 68 68 68
-9.988951 4.552486 -20.649725 68 68 68
-10.404624 4.763006 -21.604626 65 65 65
-10.181818 4.681818 -21.236364 61 61 61
-75.914894 35.063831 -159.046814 57 57 57
-74.000000 34.333332 -155.733337 65 65 65
-27.162790 12.775194 -57.947289 54 54 54
-9.970326 4.890208 -22.181602 63 63 63
-9.636888 4.749279 -21.542364 68 68 68
-14.414414 7.423423 -33.672073 88 88 88
-14.278027 7.390134 -33.521076 101 101 101
-14.080000 7.324444 -33.223110 117 117 117
-13.885463 7.259912 -32.930397 97 97 97
-44.656715 24.597015 -111.570152 106 106 106
-43.130436 23.884058 -108.336235 127 127 127
-17.745455 9.987879 -45.304245 137 137 137
-4.781609 2.706075 -12.274549 101 101 101
-4.771005 2.714992 -12.314992 97 97 97
-4.768212 2.728477 -12.376160 122 122 122
-4.749586 2.733002 -12.396684 127 127 127
-5.860082 3.390946 -15.381070 111 111 111
-5.803279 3.377049 -15.318033 88 88 88
-5.770492 3.377049 -15.318033 92 92 92
-5.737705 3.377049 -15.318033 122 122 122
-8.836601 5.385621 -24.428759 156 156 156
-2.847458 1.745763 -7.918644 132 132 132
-5.126214 3.200000 -14.514952 127 127 127
-5.085271 3.193799 -14.486822 127 127 127
-16.516129 10.632258 -48.227097 142 142 142
-3.543018 2.324401 -10.543301 152 152 152
-3.525424 2.327684 -10.558192 164 164 164
-3.483146 2.314607 -10.498877 142 142 142
-3.450980 2.308123 -10.469468 132 132 132
-3.491329 2.381503 -10.802313 170 170 170
-29.200001 20.600000 -93.440002 122 122 122
-27.294117 19.388235 -87.943535 117 117 117
-22.949495 16.646465 -75.507072 156 156 156
-6.941538 5.070769 -23.000616 156 156 156
-2.823529 2.154248 -9.771503 167 167 167
-2.802614 2.154248 -9.771503 167 167 167
-2.767230 2.143043 -9.720676 156 156 156
